# .PCD v0.7 - Point Cloud Data file format
VERSION 0.7
FIELDS x y z intensity
SIZE 4 4 4 4
TYPE F F F F
COUNT 1 1 1 1
WIDTH 1286
HEIGHT 1
VIEWPOINT 0 0 0 1 0 0 0
POINTS 1286
DATA ascii
2.7952859 5.0078487 4.9799519 89.25
3.0890017 4.9409719 5.1163731 91.333336
6.1782808 3.5226295 5.562665 104
6.2525797 3.2932799 5.5738158 91
9.5083084 1.9844728 5.6165137 14
9.4601145 1.7123511 5.5968709 18
15.882805 -1.382987 6.3953023 9
2.6997342 5.372416 5.134758 38.5
6.0821199 3.7977984 5.5527802 108
9.5567627 2.2619562 5.6399784 9.333333
16.030445 -0.86988217 6.3867869 10
2.8054466 5.9739027 4.979187 24
6.4352131 4.2084589 5.261519 109.5
9.5282412 2.6605599 5.6260638 25.333334
12.760641 1.1179231 5.7606635 79
16.120113 -0.45379925 6.3724375 11.5
6.2006884 4.7283306 5.2341743 117.33334
9.5256548 3.0723736 5.6336484 68.666664
12.881792 1.6422222 5.7777472 80
12.841732 1.3808982 5.7771287 69
16.200567 -0.034144625 6.3576431 14.5
6.2825947 5.0416198 5.3561544 125
9.6011486 3.5200543 5.6913838 105
12.960734 1.9121273 5.796473 84.5
16.301271 0.28384757 6.3633409 6
9.6645823 3.8319604 5.7413187 108
13.037375 2.2733989 5.8118815 80
16.366011 0.71055579 6.3479419 14
6.4927902 5.8892174 5.0611396 6.5
6.5572414 5.6503325 5.0374775 5
8.4975014 4.8266306 5.2347178 66.5
13.084353 2.6353338 5.8179283 65.5
6.5922031 6.277256 5.2042818 8.5
13.243753 3.3010261 5.8679266 64
13.176323 3.013006 5.8457575 72.5
6.6406908 6.5571299 5.2982354 5
10.010753 5.138835 5.2888803 11
13.296342 3.5904276 5.8859344 62
-14.280295 -8.2809982 6.2282453 19
-14.179893 -7.2445531 5.8966532 17.5
-14.171371 -6.8255348 5.7771301 10.5
-14.22195 -6.5455346 5.7155623 8
-10.734734 -6.3118505 6.0862107 53.333332
-10.302289 -4.6088524 6.0030308 72.333336
-10.140541 -4.8871317 6.0330014 40.5
-9.8724117 -2.9340208 5.9045005 82
-9.7653332 -3.1414018 5.9134665 99.333336
-10.011702 -2.4948533 5.8493748 95
-9.97997 -2.6652129 5.8814626 87.5
-6.2180271 -2.3742306 5.7482896 2
5.4173107 1.1747556 5.8732319 56
5.4662523 1.513931 5.931242 55.799999
5.5815392 1.9281716 6.0705295 17
8.9527674 0.46335953 6.0515084 13
9.0121851 0.71273565 6.0677919 17.666666
5.7406769 2.776741 5.7072487 50
9.0608177 1.1504821 6.0694695 32.5
9.0410385 0.96192449 6.067976 34
3.0552411 4.6424637 5.4852352 70
5.8408337 3.0678694 5.8397307 81.5
9.1282415 1.4735901 6.0972471 29.333334
2.7546678 4.9883599 5.4970117 63.400002
2.9643667 4.759171 5.4925733 80
5.9022417 3.4033267 5.9561005 86.5
9.230628 1.8744316 6.1504645 49.666668
2.7488163 5.6723037 5.3373027 47
9.3114462 2.2828939 6.198391 54.666668
1.5325334 6.3308773 5.2070546 30
2.7847342 5.8889475 5.4849949 37
6.0818071 4.2518802 5.6556239 102.33334
9.3628664 2.5609632 6.2330756 50
6.1599903 4.6024647 5.7952447 108.5
5.0362806 5.534894 5.3938093 83
9.7139835 3.9983895 5.7775683 125
12.52527 2.5220306 6.3974843 18
16.397261 0.92524737 6.3409853 10
6.4826841 5.9665117 5.7112455 6.5
6.4539299 5.7225599 5.6283717 8
8.4992628 4.9152422 5.930131 77
9.7994442 4.487 5.8581481 70
9.7590113 4.2413783 5.8180857 105
16.44648 1.1422646 6.3413601 10
16.54208 1.4728899 6.3513112 24
10.002246 5.2162852 6.030005 11
16.648987 1.9179375 6.35953 16
-13.428378 -7.2541976 6.5450125 55
-13.07725 -7.3569298 6.4639158 57
-12.616472 -7.4828134 6.357657 65.5
-12.27962 -7.5711842 6.2810392 61
-14.030871 -6.164979 6.4129066 77
-13.958807 -5.9391136 6.3225803 79
-13.885547 -5.6234851 6.2077746 74.5
-13.797796 -5.217288 6.0653892 58.5
-14.139589 -4.5245996 6.0100732 7
-14.134872 -4.7035928 6.0528631 8
-10.27756 -5.8721514 6.4835873 11.5
-10.181143 -5.5030785 6.2913299 24.5
-10.141914 -5.2542696 6.175097 36
-13.24977 -2.6914082 6.0396004 56
-9.9251184 -4.2885447 6.4127398 36.5
-13.186487 -2.3679497 5.9449263 81.666664
-9.8562851 -3.9932938 6.26336 56.5
-9.7574844 -3.6327085 6.0786309 98.666664
-9.9419975 -2.8344796 5.911581 55
-9.5337257 -2.6557677 6.3010459 89
-9.4332905 -2.1804285 6.0879788 83
-9.4901495 -2.4174454 6.1968608 90.333336
-9.3984528 -1.954633 6.0005932 73.666664
-9.346549 -1.5705893 5.8649964 49
-9.4175558 -1.0549699 5.7907233 72.5
-9.3417149 -1.3069702 5.7973876 86
-9.4857397 -0.43623132 5.7197242 36.5
-9.5023708 -0.69749159 5.7750406 30
-9.0856571 -0.61602378 6.1307316 9
-9.5364485 -0.17784868 5.7142267 41
-9.0499077 -0.36845309 6.0611377 36.5
-12.251019 1.7407496 5.7558599 88
-8.944809 0.021408454 5.9273691 125
-8.8671818 0.40266329 5.8292041 155
-8.7740688 0.8238284 5.7328863 141
-12.082673 2.7624362 5.6708736 31
-8.7120113 1.2446239 5.6762295 124.75
-8.6729698 1.6706482 5.6544814 106
-8.5876865 2.087893 5.6171527 121.5
-8.4970074 2.5060728 5.5940285 137.33333
-8.5375319 2.3199537 5.6018338 128
-8.4117622 2.8798506 5.5862956 115.6
-8.2994547 3.3059466 5.5756307 121
-7.9530277 4.5767522 5.6364141 127
-7.8985777 4.7787123 5.6640425 115
-8.2661152 5.4541345 5.4243822 51.5
-8.1034203 5.8078566 5.4500065 100.5
-7.9419861 6.0278373 5.4422417 93
-4.4926882 5.6401091 5.4333081 81
5.301712 0.75063014 6.4038515 12
5.293046 0.59390205 6.4040933 14
-4.4039793 5.715857 5.443821 32
5.6746283 2.4512558 6.2236013 37
5.6352139 2.2549617 6.1589575 28.666666
5.6945515 2.5516932 6.2580295 52
8.9584541 1.2690165 6.7075863 12
12.714496 -0.23623495 6.687521 9.5
4.2034941 4.429812 6.235641 61.333332
5.3163891 4.0311828 6.3135433 82
5.9498053 3.6404078 6.0464621 87
8.8904991 2.1922424 6.6486416 32.5
8.9699097 1.8942857 6.7004743 21
12.784362 0.18560095 6.6753926 11
2.7238071 5.5287461 5.824399 31
5.2404585 4.1403298 6.2900314 91
6.0311947 3.9625819 6.1877389 98.5
8.8720274 2.5051923 6.6433773 38
12.844828 0.61125511 6.6642818 19.5
1.519232 6.3402853 5.7934737 69
2.7631757 5.8207326 6.0402708 27
8.4809818 3.3418429 6.4355831 31
9.4391098 2.7845869 6.2849255 33.5
12.908113 1.1275589 6.6534553 26.5
6.2337942 4.8406663 5.9064188 95
8.2988777 3.5951092 6.3419538 29
9.461525 3.0653703 6.3088727 31
13.012425 1.4827998 6.6805062 30.5
5.0468445 5.573822 6.0418434 41
6.2587957 5.0523038 5.9811573 101
8.3082647 3.9944842 6.3961248 72
9.6902618 3.4931223 6.4674397 22
13.037722 2.0956118 6.6605606 14
13.088187 1.8405898 6.6972208 27
7.9470377 4.6962647 6.2772002 59.5
9.451252 4.274478 6.3909359 53
12.920198 2.3377483 6.5942464 14.5
9.2151175 4.4665375 6.275187 43
9.5086565 4.3005385 6.426219 46
12.948563 2.7829731 6.5952568 10
6.5231104 6.227385 5.8069801 6
12.993707 3.328392 6.6098309 24
13.114039 2.997582 6.6708002 22
6.6375504 6.7290983 6.0160141 8
12.718554 3.7043066 6.47894 23.5
-13.823092 -7.1634116 6.6467795 58.5
-17.407333 -5.0374494 6.3247132 8
-14.136021 -6.7125955 6.6121473 72
-14.071786 -6.3805957 6.4904079 61
-12.624422 -6.3282275 6.8090949 43
-13.646725 -4.6208391 6.686924 88
-13.561778 -4.2458916 6.5487661 107
-13.634679 -4.4422421 6.632535 61
-13.527483 -3.9805324 6.4645538 85
-13.470693 -3.712805 6.3721681 79
-10.036869 -4.7559876 6.658144 19.5
-9.9387608 -4.4986134 6.5030804 34
-16.366541 -0.28430343 6.1036797 8
-9.7095747 -3.4256067 6.6844468 54
-16.3389 0.18297763 6.0437222 18
-16.339491 -0.0037680715 6.0628471 24
-12.955741 -1.3615382 6.4301376 107
-9.6310568 -3.0952504 6.5138574 101
-8.6360884 -3.5747988 6.8020582 9
-12.874888 -1.133965 6.3504934 72
-9.5972996 -2.848408 6.4057479 86.5
-12.811476 -0.76694292 6.2608852 75
-16.076645 1.1893315 5.8580823 17.5
-12.719558 -0.33300608 6.1541677 95.333336
-15.931323 1.7268488 5.7691855 17
-12.607671 0.09288545 6.0471106 125
-9.3130379 -1.4537313 6.4867153 57
-12.479239 0.50978452 5.9409609 20
-9.2122574 -1.1297376 6.3325429 53.666668
-12.446176 0.85697383 5.897017 114.5
-12.484334 0.65001363 5.931808 33
-9.1166849 -0.81744617 6.1938152 25.333334
-12.376495 1.1993437 5.8408556 122.66666
-12.305053 1.5394561 5.7894182 109.5
-12.174154 2.5000994 5.7115607 22.5
-8.7587309 0.8715722 6.3706675 117.2
-12.07363 2.9745994 5.6722741 17
-8.6544142 1.3295119 6.2779188 138.66667
-8.7078428 1.1491028 6.3207502 131
-12.00949 3.2445548 5.6520185 20.333334
-8.5805464 1.6473486 6.2274723 145.5
-11.888652 3.7887998 5.6255732 19
-11.929654 3.5826831 5.6315546 22
-8.4964628 2.0576935 6.1884885 127.8
-11.821712 4.0607924 5.6152859 22.333334
-8.3954611 2.4646509 6.1548095 140
-11.72183 4.4716311 5.606884 25.666666
-8.2998991 2.977277 6.1633244 134.5
-8.3249807 2.8194118 6.1546335 127
-11.654975 4.747787 5.6057463 29
-8.219265 3.3088396 6.1620998 142.5
-7.8337183 4.977006 5.6881661 119
-7.7786617 5.2500277 5.7464747 131.33333
-7.7130499 5.5892262 5.8279624 133.33333
-7.6078272 5.9782934 5.9156389 117.5
8.491189 0.81289124 7.1388264 9
8.5503216 0.93694419 7.1761799 10
5.905488 2.8329146 6.4960804 23
5.0663309 3.7505472 6.6859303 75
5.9531784 2.9530325 6.5616131 32
9.0304089 1.7171516 6.7437992 18
4.3316727 4.3292322 6.2918119 79
4.5660343 4.2073498 6.4320807 79.333336
4.8283072 3.9932535 6.5680504 66.599998
5.7478895 3.7716639 6.5866799 59.333332
5.9886694 3.5351436 6.7257471 77.5
6.1037836 3.3319547 6.7746334 48
4.1706352 5.0304193 6.5138798 53
4.2683306 4.8295331 6.485126 57.666668
5.1845398 4.4886007 6.3722582 70.333336
5.495594 4.0439863 6.4623337 62
5.6208944 3.9624412 6.5386248 63.5
7.957262 3.1111042 6.7760243 17
8.2116709 2.8340347 6.9372048 13.5
8.9181128 2.6467416 6.679883 32
3.9004323 5.4265714 6.5331163 38
4.025877 5.2472615 6.5235801 56.5
5.03971 5.0219803 6.4758568 70
5.1508312 4.8133698 6.4728546 65
6.2739801 4.4036779 6.4857302 54.5
8.8335171 3.054189 6.6464477 9
0.66526234 7.2639513 6.2175026 9
0.99054027 7.1514463 6.2232161 7
1.8323195 6.8438439 6.2974997 8.5
4.3476954 5.5572133 6.2364035 69
4.6510944 5.4133806 6.3732281 76.75
5.0006523 5.237761 6.5400696 70.5
5.5562954 5.2423458 6.2479849 77
5.8349466 5.0822983 6.382431 74.25
6.2260351 4.8019347 6.5672641 71.333336
6.3204098 4.6169429 6.5801105 73
4.4109344 5.9084649 6.4530611 24
5.4645996 5.3597851 6.2297773 65
8.4825401 4.0739813 6.5185862 59.5
8.662838 3.8803403 6.6100545 56
8.2947836 4.6043262 6.4775267 51.5
8.5296526 4.442378 6.5998158 59.5
9.8163137 3.9794543 6.5764556 56.333332
9.8504801 3.6953042 6.5751805 55
3.1402321 7.7696042 6.1138053 6
5.7919369 6.9140129 6.3275886 7
-12.959669 -7.0849957 7.2067924 27
-12.770624 -7.1734772 7.1677933 34
-13.230693 -6.8406429 7.2228951 25
-13.047809 -6.9373169 7.1870627 50
-14.013199 -5.6724029 7.1470361 58
-13.81667 -5.8722596 7.1300249 42
-13.428888 -6.1689363 7.070848 52
-13.067877 -6.2750564 6.9640851 44
-14.052283 -5.4064217 7.0823431 60
-14.060615 -5.1305771 7.0042276 57
-13.761786 -4.8387065 6.7963243 64
-13.379922 -2.4873264 6.8685164 74
-13.011187 -2.6472073 6.7216859 36.5
-9.6908665 -4.2456336 7.0098338 19
-9.5497656 -4.5106106 7.0472183 11.666667
-13.418044 -2.3373032 6.8545208 67
-11.89611 -2.6934247 6.9526892 39
-9.9690361 -3.7773902 6.9776211 59.333332
-9.8156538 -4.0387292 6.9939656 40.5
-13.140061 -1.9081786 6.6259027 74
-12.025555 -2.5809624 6.9951005 48
-12.999365 -1.5887451 6.4934158 78.5
-9.1229258 -3.1413558 6.9337721 57
-9.0314436 -3.3943133 6.9815817 46.25
-9.3718662 -2.7120118 6.9332638 33
-9.2204762 -2.9470081 6.920897 54
-8.3825579 -3.1230168 7.1463327 18.333334
-8.134366 -3.3936915 7.0996876 6.5
-9.5171614 -2.1361406 6.8325901 4
-9.4817715 -2.3498707 6.8794746 23
-9.5312986 -1.9741199 6.7912998 10
-8.8415346 -1.5170592 6.8611169 8
-8.8118496 -1.7104864 6.8993812 6
-8.8749762 -1.2753556 6.8169298 17.25
-12.244591 0.76876014 6.5538363 29
-11.074595 0.54633337 6.6252775 19
-9.0980568 -0.21424554 6.7581825 30
-8.3999777 -0.46797502 6.9368467 13
-9.0441694 0.22469534 6.6520605 66
-8.1976957 -0.28483003 6.7188249 28.333334
-9.0692911 0.51832014 6.6416302 99
-9.0194654 0.5136016 6.6026158 79.5
-8.345006 0.33434558 6.7564549 68
-8.2859583 0.067064062 6.7381206 60.333332
-8.3181934 0.68738443 6.7020111 79.199997
-8.3546762 1.2305121 6.7167192 76.666664
-8.3120928 0.99833363 6.6815886 59.5
-8.3108912 1.5858567 6.6880774 102.2
-8.227047 1.9787214 6.6437397 104
-8.1221056 2.5079269 6.6229839 102.5
-8.1638861 2.2860098 6.6253724 112
-10.383804 3.998214 6.3098831 44
-8.0529966 2.7695169 6.6125798 89.5
-7.996129 3.0378351 6.621664 68.5
-7.4701071 4.2734823 6.5422664 77
-6.1662664 6.6918159 6.1930184 21
-5.317524 6.500639 6.3608513 57.5
8.5980587 1.1209202 7.2028079 16
8.5940828 1.4189378 7.1881475 11
8.6222563 1.3035231 7.2134728 15
5.2223291 3.6496775 6.791573 87
5.427104 3.4708202 6.9232674 54.400002
6.2732048 3.2046154 6.8937998 27
8.7059307 1.8041095 7.2686644 28.666666
6.2141123 3.2815211 6.8588881 43
8.7775612 2.2543361 7.3298311 49
8.4029675 2.7105701 7.0700788 28
0.50379276 7.3349032 6.2321882 5
1.5734413 7.0109892 6.3179855 7
1.019731 8.2663317 6.3785496 10
1.4629943 8.0225086 6.3340096 5.5
2.1869993 7.738627 6.3904281 6
7.4303379 9.990016 6.6456475 10
7.5342722 9.8719254 6.6515636 9
-13.485028 -2.9860268 7.0372915 42
-12.742125 -1.9927104 7.2558975 41
-12.429974 -2.2308192 7.1349382 47
-12.158165 -2.4667273 7.0398908 55
-15.971245 0.26040733 6.7923408 10
-8.646945 -2.9013422 7.239635 11
-8.5504389 -2.973634 7.2003098 10
-15.990172 0.99000281 6.7370825 7
-15.972856 1.1712844 6.71629 16
-12.807298 0.31059772 6.9170175 6
-12.740161 0.45054632 6.8647614 73
-12.593985 0.58423549 6.7688308 46
-11.718642 0.069139555 7.0901775 23
-12.575626 1.0761229 6.7223616 82.5
-11.263809 0.37208056 6.7635474 43
-8.5593424 -0.75160396 7.1454754 10
-12.525865 1.4235406 6.6765976 90.333336
-11.543228 1.0897448 6.8884001 60
-11.34025 0.81527245 6.7754035 55.333332
-8.4875202 -0.56298739 7.0361633 19
-12.469339 1.9115584 6.6305838 72.5
-12.482682 1.7006588 6.6423602 71
-11.638544 1.2304218 6.9425397 58
-12.420123 2.259038 6.601079 105.33334
-12.356748 2.6761613 6.5717239 108.33334
-12.216994 3.2195666 6.5159473 89
-12.264031 3.0144117 6.5318608 100.5
-12.159836 3.4220908 6.4969702 101
-12.08833 3.767822 6.4841104 89.666664
-11.303367 3.6824417 6.8166165 41
-11.990106 4.1811447 6.470273 73
-11.126539 3.7557642 6.718658 39
-10.927691 3.8169863 6.607141 47
-11.907377 4.6053801 6.4753261 98
-10.785012 4.0781059 6.5584555 49
-11.846099 4.8881302 6.4804087 96
-10.970544 4.6229715 6.730823 33.5
-7.9793024 3.1786544 6.6406546 77
-7.9243107 3.3848002 6.6127791 91
-8.1233358 4.7856898 6.4724627 70
-7.4378586 4.4162545 6.5717592 70
-11.251978 6.7298594 6.4736772 7
-8.0398865 5.0362186 6.5044537 68.5
-7.4122906 4.7370734 6.6793566 62.5
-7.813014 5.3735824 6.4859829 69.25
-7.3167515 5.1975436 6.8086219 68
-7.3597908 4.9896483 6.7471189 60
-7.6409016 5.6937728 6.5087242 79.666664
-7.3990679 5.9346023 6.4701867 74
-7.3271818 5.9606714 6.439908 76
-7.2470379 6.1659665 6.4868693 33
-6.9923763 6.3449888 6.4323311 50.666668
-6.4603662 6.2255406 6.7910423 70
-6.7507076 6.60815 6.4354472 38
-6.3436975 6.2377896 6.7322216 65
-6.0772629 6.2872295 6.6149507 79
-5.8159466 6.3335018 6.5037003 70
-6.5268679 6.7389712 6.3899364 42
-5.599947 6.4281259 6.4522753 57.5
6.6091232 1.708859 7.7770557 19
6.047204 2.8400121 7.3538365 52
6.0444784 3.0397635 7.3948307 23
1.2710395 11.846023 6.3414669 7
1.4043825 11.787166 6.3348222 9
1.8750734 11.624701 6.3422008 7
2.1457322 11.546562 6.3596449 7
2.6850221 11.385425 6.4042635 6.5
2.955533 11.30644 6.4338217 5.5
3.5202744 11.008126 6.4469333 16
3.7199275 10.941177 6.4745574 8.5
3.9865057 10.850574 6.5143852 7
3.0372331 14.90944 6.2761698 7
-14.162669 -4.8046422 7.8696065 52
-13.796663 -5.034729 7.76829 62
-13.444422 -5.2572918 7.675776 57.5
-13.218917 -5.432817 7.6302257 37
-13.46162 -1.4861579 7.5594969 38
-13.186082 -1.6821275 7.4416232 48.5
-12.900646 -1.8687155 7.3184977 58
-12.147382 1.704016 7.252018 47
-11.899152 1.4636896 7.100225 64.5
-11.854826 3.5914524 7.1412053 26
-11.566928 3.6357737 6.9708652 46
-7.2151384 5.5518999 6.9042473 58
-7.099699 5.9091134 7.0046787 58.333332
-7.0305262 6.1173449 7.0678267 57
-6.6879129 6.1870584 6.9011817 71.333336
1.1644034 11.184255 6.7629333 8
1.4848666 11.089553 6.7717762 9.666667
1.8758271 11.010438 6.8117476 9
2.2674532 10.929238 6.8602309 8
2.395999 10.893481 6.8734531 8
2.712352 10.786668 6.9006824 9
3.8380139 10.361864 7.0301962 7.5
4.0237036 10.284328 7.0562735 6
7.4300833 9.4042454 7.2925978 5
7.6384354 9.3001537 7.3561692 5
-15.097339 -4.2708611 8.1634102 57
-14.923181 -4.4067035 8.1171036 47
-14.585933 -4.5796967 8.0045795 59
-13.644539 -1.3502188 7.638164 37
-14.147914 -0.99563801 7.8639059 28.5
-13.847654 -1.2119958 7.7291422 37
-12.488687 2.0427115 7.4648342 48
-12.354676 1.8773878 7.3810577 48
-12.719714 2.2309654 7.6111603 38
-12.26268 3.2848685 7.3656077 27
-12.119567 3.4601743 7.2912788 77.5
0.97148955 10.77819 7.2900181 9
1.2757516 10.674811 7.2863183 8.5
1.5743577 10.556073 7.2790456 7
2.0064793 10.461066 7.329227 9
2.5100124 10.374875 7.4202495 6.5
2.6908681 10.312889 7.4385886 7
3.2833145 10.076657 7.4980879 14
2.6396203 14.336792 6.8876181 10
2.9733551 14.23236 6.9071202 6
-15.626776 -3.9409609 8.3333063 47.5
-15.329659 -4.1479464 8.2428179 49
-15.892396 -3.7193441 8.407095 28
-14.949272 -0.28623426 8.2177086 36
-14.765724 -0.45086133 8.1347208 29
-14.525012 -0.69087255 8.0316801 22
-15.018283 -0.11745505 8.2356415 27
-13.190357 2.7054188 7.9150233 50.5
-12.924848 2.4200304 7.7423368 45
-15.68232 0.23762889 8.575489 15
-13.422495 2.9926109 8.0693274 27
18.789282 -2.8724654 -0.53332829 30
20.231445 -0.50664735 -0.67473149 21
20.360712 0.0029849708 -0.70218909 22
20.527031 0.26334506 -0.72001243 36
20.568819 0.65196985 -0.74015343 29
6.1557617 -1.6872292 -0.83616674 19
6.1314654 -1.262006 -0.83990657 17
6.1870379 -1.4659858 -0.84340405 18.333334
6.1709399 -1.0582923 -0.85020387 19.75
6.2395163 -0.73037684 -0.86966401 19.25
17.371311 -3.5865986 -0.4637582 65
6.1593304 -0.4378159 -0.8706314 10
17.425692 -3.0326426 -0.48290178 71.5
17.635464 -2.4985311 -0.50788903 27
17.484173 -2.0355465 -0.51954097 78
17.501638 -2.259774 -0.51191878 71
16.262529 -1.3037069 -0.50669199 83
17.075947 -1.5646727 -0.52377164 76
17.547634 -1.8186798 -0.5298298 53
16.152521 -1.0930467 -0.5115453 25
16.074608 -0.68297076 -0.52622139 64
16.668932 1.8422847 -0.67116237 90
16.734348 2.0655916 -0.68584222 101
16.752199 2.3922219 -0.70517623 85
1.1960537 -13.935516 -0.39431641 149.5
1.4574296 -13.990545 -0.38694081 80
3.9647648 -9.7395506 -0.18746959 129
4.123692 -9.7719469 -0.18667404 80
0.42825466 -8.1460142 -0.59647727 95
2.4355564 -8.6624126 -0.60837805 80.5
1.9098842 -8.2602224 -0.57916552 61
1.3099301 -7.5858603 -0.53111571 28
2.0950503 -7.3563733 -0.50804389 76
0.033451557 -5.927979 -0.69863081 19
0.18709832 -6.0361218 -0.70945513 25.666666
0.82395428 -6.0126734 -0.69876695 16
1.2561965 -6.0835996 -0.70943582 22.5
1.3806803 -5.9989843 -0.70023346 18
2.1925144 -6.0915551 -0.73025584 20
2.2785285 -6.0057673 -0.72325087 22.5
-0.068259656 -4.7782354 -0.77077067 33
0.14686644 -4.7587748 -0.76455486 34.666668
3.2094705 -5.5927367 -0.72304201 17
0.3373518 -4.7490029 -0.76207602 24
0.53487176 -4.7321558 -0.7609331 36.400002
0.96575552 -4.6711216 -0.75988841 35.400002
3.350661 -5.4549856 -0.71813524 25
3.542803 -5.4419346 -0.72945893 20
-0.0415802 -3.9060774 -0.79258907 42.875
1.556854 -4.5373654 -0.76513022 23
1.8422446 -4.4320951 -0.7676754 23.75
3.890013 -5.1150341 -0.7250905 22
4.1402793 -4.9697971 -0.73309833 29.25
0.78970307 -3.8457055 -0.80423844 24.75
2.3377893 -4.1580586 -0.76985633 30.571428
4.301641 -4.845645 -0.73687112 32
1.2335038 -3.632549 -0.79290938 32.625
1.6271632 -3.4729648 -0.80339336 35
3.3406713 -3.8903332 -0.58161598 207
3.5398414 -3.9325864 -0.60235894 87
-0.18844205 -2.7464426 -0.77429789 45.214283
0.73090261 -3.0255206 -0.78272384 22.666666
0.92753702 -3.0071454 -0.80103552 31
1.743331 -3.3594255 -0.79760909 27.333334
2.0786042 -3.1773438 -0.81347907 38
2.4314799 -3.4343684 -0.68701577 15
3.0498924 -3.6305554 -0.78380322 22.666666
4.7729259 -4.1949096 -0.40869108 80
-2.7432647 -1.8180931 -0.87059999 36
-2.267911 -1.7080147 -0.87616765 28.450001
-1.9792752 -1.9419506 -0.82972229 29.025
-1.6914561 -1.9199851 -0.84422868 36.556816
-0.26789516 -2.301085 -0.84964085 14
-0.056374133 -2.4329507 -0.79616511 28.008547
0.31018859 -2.4729764 -0.78694892 15.75
0.74659938 -2.6166852 -0.82589167 15.923077
0.96269423 -2.5534766 -0.76965064 42.42857
1.4344635 -2.7521436 -0.8190906 36.333332
2.2099271 -2.9042332 -0.69743598 32.333336
3.4772213 -3.2412593 -0.67566907 42.128571
3.7891338 -3.1887114 -0.58025908 52
4.4928679 -3.5489423 -0.67251796 94
5.3452954 -3.5438099 -0.42970061 70.5
-2.574255 -1.3886957 -0.88072574 19.833334
-2.1965346 -1.6255605 -0.89138258 15
-1.9007072 -1.5464728 -0.85420489 20.719048
-1.581218 -1.6441746 -0.85997695 29.387085
-1.2669667 -1.5831993 -0.85905409 17.125
-0.21156234 -1.9481091 -0.84552598 12.069445
0.04965663 -1.9712307 -0.83735931 12
0.49996358 -2.1671834 -0.83270407 13.375
0.8476575 -2.2375727 -0.80398172 56.033333
1.2454743 -2.2504928 -0.82714957 22.799999
1.6781697 -2.5405557 -0.8219713 21.666666
1.977073 -2.5055423 -0.78376585 26.285713
2.2976487 -2.6362405 -0.68024516 164.25
3.2874241 -2.706562 -0.61763084 113.5
3.5898497 -2.9232128 -0.79422319 75.666664
4.6927032 -3.2406023 -0.68027925 84
5.028688 -3.1609309 -0.71513104 16.333334
5.4590445 -3.3054817 -0.59950352 81.5
-2.0168962 -0.95267826 -0.87861902 19.25
-1.7678094 -1.1322441 -0.86845827 21.227571
-1.4135168 -1.2273092 -0.87560219 22.326324
-1.172298 -1.3487062 -0.86535656 18.602249
-0.18701789 -1.5051925 -0.87476075 14.934916
0.085430741 -1.5819166 -0.85348916 14.914142
0.56200856 -1.8341286 -0.84767127 17.095238
0.9404611 -1.8656147 -0.84751064 17.961538
1.3041728 -1.9547741 -0.84117377 17.715908
1.5704818 -1.9299994 -0.8421278 22.777779
2.0756385 -2.0980191 -0.83836091 30.90909
2.5517075 -2.401608 -0.79114795 95.333336
2.820509 -2.2626541 -0.8304311 42.625
3.6071284 -2.6593771 -0.778234 123
3.8695147 -2.5942008 -0.81580639 29.6
4.5629706 -2.7022374 -0.64671564 88
-2.0617709 -0.82229686 -0.8870334 19.857143
-1.7241352 -0.76663184 -0.88747251 21.540195
-1.4171124 -0.94867122 -0.88736641 20.695377
-0.063606501 -1.300053 -0.86853313 12.692307
0.22183585 -1.2333314 -0.86450034 15.194941
0.58561522 -1.3853254 -0.85205078 17.148809
0.98251706 -1.3897381 -0.86022407 20.236111
1.3802299 -1.5238175 -0.85259145 21.799999
1.7584412 -1.6283574 -0.84912038 26.307692
2.2900286 -1.7515669 -0.85104871 30
2.9313495 -1.880512 -0.72656524 35.474998
-1.5099479 -0.57625222 -0.89990807 6.6666665
0.7018699 -0.87037671 -0.87297165 15.162393
1.1521943 -1.0588286 -0.87118566 15.327303
1.5526283 -1.1603174 -0.86381245 17.428572
1.9277222 -1.2431517 -0.86084402 19.461538
2.4237158 -1.3678777 -0.85694963 29
3.0480549 -1.528203 -0.73511273 41.1875
-1.8401616 0.28883916 -0.9296844 20.25
-1.6470287 0.2068333 -0.92068166 8
0.56783098 -0.46442348 -0.89368212 17.9
0.76963609 -0.56500208 -0.88313413 16.838785
1.2413657 -0.66849744 -0.8797366 20.232197
1.6423779 -0.76910299 -0.87319297 21.866667
2.0217521 -0.84908164 -0.87239563 27.666666
2.5253663 -0.97450924 -0.87074476 36.5
3.2584684 -1.1600071 -0.86977166 45.25
3.6547282 -1.3711565 -0.73854572 93
3.7258322 -1.332288 -0.75095844 48
4.2970123 -1.3334351 -0.8529402 36.666668
4.9782281 -1.5302162 -0.68569171 28
-1.9012418 0.33130372 -0.93161076 25
-1.578243 0.39945477 -0.96882695 9
0.65479428 -0.11167872 -0.89985448 16.950758
0.91119379 -0.15965593 -0.89156145 16.86389
1.2406099 -0.28910768 -0.88826132 20.320513
1.6561916 -0.35593635 -0.88470727 18.666666
2.0506556 -0.46204996 -0.88552094 25.416666
2.5541158 -0.57069045 -0.88154262 37.545456
3.2809021 -0.75412506 -0.87710834 39
4.3366237 -1.0326602 -0.86292446 38.142857
4.5920229 -1.2540592 -0.63894409 25
-1.47622 0.72166282 -0.93765688 18
-0.73544192 0.82495505 -0.92574489 20.6
-0.54846013 0.66839975 -0.92226839 18.247856
-0.17654938 0.5943715 -0.91155487 25.431993
0.2479499 0.48210984 -0.90221292 18.796154
0.64479238 0.26376247 -0.90447396 15.263636
0.99733526 0.21617419 -0.90428507 15.261375
1.4110639 0.15697211 -0.90223998 15.852381
1.794729 0.055845141 -0.90280932 22.700001
2.0248153 -0.10880226 -0.89880216 27.700001
2.5199392 -0.14923023 -0.89287364 31.181818
3.2417197 -0.32819089 -0.88289106 34.666668
4.2766819 -0.48687905 -0.86707199 28
4.3342385 -0.6988253 -0.87002456 32.75
-0.72702378 1.0479021 -0.93592411 15.222222
-0.45884141 0.98662037 -0.93186265 17.582067
-0.053925872 0.88521665 -0.90931791 19.272818
0.19381809 0.76618439 -0.89945602 15.455556
0.68086809 0.74057204 -0.89011288 29.036366
1.2091835 0.57053751 -0.9166047 18.6
1.4276783 0.48075062 -0.91482449 18.066668
1.8476572 0.41471827 -0.90876091 17.142857
2.3891146 0.36559153 -0.90759099 29.142857
2.4794085 0.15245819 -0.90765887 35.799999
3.1702821 0.13399214 -0.89747095 48.857143
3.2118359 -0.072087944 -0.89082867 40.5
4.2745576 -0.19006298 -0.88125044 30.142857
6.1188464 -0.51924211 -0.86177486 8
-1.031908 1.7313416 -0.95326829 19.333334
-0.6164875 1.430336 -0.94205832 14.571428
-0.37648669 1.4430387 -0.94417197 24.231203
-0.039119303 1.2613702 -0.92604595 21.125
0.35615128 1.234983 -0.9141736 32.375
0.91803843 1.0134072 -0.83783907 25.75
1.2833958 0.98834461 -0.93073273 16.611111
1.5609858 0.90184385 -0.92353827 20.866667
1.9392831 0.78326553 -0.92386734 29.375
2.3313825 0.77239162 -0.8658703 47.1875
2.8373396 0.68843979 -0.78744918 289.91666
3.0735292 0.55552334 -0.81933218 111.0625
4.1401467 0.41887343 -0.89916563 32
4.225894 0.1929124 -0.89697403 33.833332
4.6223722 0.023896307 -0.69054806 33
6.0633354 -0.030902237 -0.87804443 19
6.0957122 -0.2335889 -0.87184823 20.75
-0.94233179 1.7654927 -0.95765156 12.5
-0.75594831 1.7873461 -0.94981033 18.6
-0.20164886 1.6984088 -0.95431924 22.116667
0.016409099 1.6796732 -0.95519871 19.821428
0.46539968 1.545233 -0.94672096 21.125
1.328269 1.3211391 -0.9031772 23.5625
1.7438343 1.3419843 -0.92926854 35.444443
1.9835045 1.1131229 -0.93145537 36.57143
2.3850186 1.0889621 -0.84560293 137.14285
2.8239522 0.91453332 -0.9102053 38.25
4.0264688 0.6326372 -0.8983897 30.666666
4.7856431 0.57086927 -0.74961269 54.799999
5.9805984 0.22668409 -0.88242543 18.75
-0.8248179 2.1373813 -0.96787441 32
-0.70094001 2.1720026 -0.97255355 39
-0.16747493 2.1448903 -0.94754565 32.076923
0.15770608 2.1223645 -0.94731998 25
0.75526243 1.8497083 -0.90151876 16
0.80226439 1.7757368 -0.88270342 20
2.2641301 1.6762455 -0.93649393 33.42857
2.5101984 1.4784207 -0.94200128 31.666666
3.8521545 1.2199423 -0.81079322 29.6
3.9313443 1.2538736 -0.70411718 48
4.8623786 0.79110116 -0.77714097 17
5.9239173 0.48298591 -0.8916955 22
-0.73215735 2.5861411 -0.97161186 43.5
-0.62222254 2.648272 -0.98611546 37
-0.036083937 2.6543005 -0.97371602 53.222221
0.30866355 2.6114163 -0.96567321 87.444443
2.1880648 1.7888131 -0.94700038 34
3.4677451 1.8692567 -0.72452897 26
0.51526088 2.6149404 -0.9748835 83
2.8259642 2.3219573 -0.9500801 37.833332
3.0184133 2.197578 -0.95295709 54.5
3.389498 1.9226897 -0.72324544 33.5
-0.14926335 3.2759333 -0.98569769 34
2.834167 2.5801222 -0.88109124 36.166664
3.0820098 2.6110156 -0.79535669 28
3.7557986 2.6519914 -0.86661983 74
4.6978793 2.4556744 -0.93878245 18
0.065446377 4.282711 -1.0189561 33
0.21882194 4.3199892 -1.0240242 23
0.40245146 4.3357477 -1.0248319 28.4
0.77762526 4.3489428 -1.0257459 31.857143
1.0509629 4.4026699 -1.0387623 20
11.468364 1.9320486 -0.50544149 55
6.1610565 3.4119651 -0.83830583 20
6.1372452 4.2531848 -0.93427169 64.333336
6.8636131 3.9832075 -0.94784141 169
0.27415258 6.0002198 -1.0788407 39
0.72700649 6.0456281 -1.0741971 51.5
1.2373872 6.0289879 -1.0617028 167
1.4975879 5.9508944 -1.0451467 121.66666
9.7618923 3.8132703 -0.58211356 37
1.8788157 -8.2184105 -0.17472897 166
2.0730851 -8.3213463 -0.17394046 137.5
2.21245 -7.8778114 -0.15718822 152
2.0883594 -7.377378 -0.14369397 173
2.3661113 -7.4459567 -0.14127891 90.5
-7.5806398 -4.1714549 -0.77214479 18.333334
-7.3809085 -3.8176095 -0.75055206 152.66667
-7.4897971 -3.6290975 -0.76495236 194
-7.066288 -3.050735 -0.71995384 38
-6.9696317 -3.1015968 -0.70762521 137
-7.3252282 -2.5091739 -0.76014578 228
-6.3149934 -2.9848483 -0.62985241 195
-6.1563358 -2.8304055 -0.61230397 123
-5.5551405 -3.0318325 -0.81440485 28
-7.7338676 -2.1708837 -0.81840181 40.5
-6.2029886 -2.4542284 -0.62280107 51
-5.5805373 -2.6669378 -0.81329304 23
-7.7932115 -1.5465701 -0.84283179 19
-6.1594133 -2.2101855 -0.62145466 77
-5.5862923 -2.1385484 -0.81126678 139
-5.5867891 -2.3465669 -0.81184757 37.75
-4.4386654 -2.4139204 -0.84013188 47.5
-4.3921466 -2.5084603 -0.83458358 35
-7.2800231 -1.295861 -0.78571016 185
-5.7257533 -1.8442733 -0.83653295 54.875
-4.4604206 -2.1061497 -0.83412427 28
-0.21107811 -3.0719092 -0.32261297 75.166664
0.12650102 -3.1199546 -0.39733565 25.5
-5.7346282 -1.3849781 -0.84410548 26.333334
-4.6266565 -1.5403061 -0.85951465 34.5
-4.5861678 -1.7419417 -0.85287452 24.333334
-3.7339869 -1.8119228 -0.84682482 31.5
-2.8676457 -1.9894087 -0.78673977 70.25
-2.3908074 -2.1601303 -0.61826301 191.575
-2.1914432 -2.1916351 -0.63641316 150.5
-0.12903267 -2.8025727 -0.59846443 23.75
0.099261165 -2.822783 -0.54511249 48.333332
2.4474151 -3.4231756 -0.2556901 324.83334
3.9502251 -3.6150384 -0.069250986 155
-5.7872458 -1.1672685 -0.85797852 26
-4.6395268 -1.2563105 -0.86272299 30
-3.8584845 -1.4350514 -0.8649165 35.666668
-3.7643638 -1.6429529 -0.84662837 19.5
-3.2429092 -1.5019939 -0.85238093 46.857143
-2.8479393 -1.6987455 -0.61543351 90.86364
-2.3993583 -1.8793159 -0.64605266 96.420876
-2.0269165 -1.8528838 -0.68772614 26.166666
-1.7687802 -1.7797172 -0.47098577 32
-0.032544076 -2.5191891 -0.58972681 79.5
0.27553481 -2.4900453 -0.48397967 17.875
0.87445992 -2.6790571 -0.43112674 95
0.92039436 -2.6507485 -0.43174049 131.5
2.5737898 -3.1063054 -0.24818684 267.39999
3.002012 -3.0462146 -0.26925859 215.5
3.7621229 -3.2871177 -0.1914802 107.125
4.2157207 -3.2957084 -0.074729845 107
-4.7113142 -0.98798656 -0.88186717 40
-3.9280736 -1.0464882 -0.8785547 44.5
-3.381989 -1.1779797 -0.88085902 33.76923
-2.920233 -1.1125717 -0.86102575 18
-2.5953186 -1.2218927 -0.86909407 12.5
-2.1745956 -1.4315836 -0.83931804 23
-1.8198633 -1.6141732 -0.59857744 75.202087
-1.747746 -1.6699071 -0.44714692 133.5
2.2071416 -2.6272759 -0.30003917 108.5
3.2977958 -2.6482756 -0.3893812 32.5
3.715369 -3.0677125 -0.064168885 55
5.4184995 -3.3939767 -0.10301344 133.5
-5.7134128 -0.12291464 -0.88435626 23.25
-5.3995614 -0.34294444 -0.81791818 230.66667
-4.6381607 -0.35885441 -0.88535094 32
-3.9092321 -0.45069814 -0.88464558 14
-3.4171197 -0.86270159 -0.88597304 35
-3.0219443 -0.77182025 -0.88899875 21.4
-2.5843139 -1.002823 -0.84521782 16.125
-2.125361 -0.89348871 -0.67362845 54.700001
-1.7694163 -1.0633469 -0.67293388 52.727776
3.3153431 -2.5630431 -0.27635041 38
4.3952355 -2.6968861 -0.21758948 239.16666
-5.7108674 0.2209397 -0.90321279 28
-4.6410999 -0.038392782 -0.90341944 46.5
-4.4423156 -0.0097199678 -0.76541984 66.699997
-3.9278691 -0.20825842 -0.90229321 57.666668
-3.9017789 -0.41034621 -0.88424784 42
-3.4355826 -0.32692769 -0.90554059 19.5
-2.0277143 -0.73157263 -0.67565602 30.930555
-1.7299879 -0.72282386 -0.64243525 42.658146
-1.5396054 -0.91308624 -0.63151538 56.75
2.9199405 -1.7886016 -0.33455086 47.5
-4.5234103 0.26005989 -0.90935159 34.5
-3.8294399 0.05269298 -0.81083852 55.5
-3.3564491 0.11827683 -0.93131387 21
-3.3798234 -0.055567324 -0.90489328 15.5
2.9714022 -1.507195 -0.33756569 73.4375
-4.4784632 0.95189017 -0.97631013 36
-3.7057505 0.63570899 -0.93777418 35
-3.1624391 0.48615205 -0.7718702 48.666668
-2.5989671 0.46281648 -0.72626644 86.05555
-2.2561727 0.40371931 -0.81333917 75
-1.9663458 0.32085019 -0.81263864 27.5
3.0203948 -1.2649209 -0.34303975 151
3.6475952 -1.3375547 -0.51603687 38.5
3.7219198 -1.3498378 -0.30415493 85
4.9768405 -1.5024781 -0.2617121 139.25
11.588484 -3.1602364 0.32296741 177
-5.4440022 1.4981313 -0.98899627 26
-4.78724 1.3916209 -0.86442071 261.5
-4.3893042 0.97323996 -0.95863998 26
-4.2654934 1.1353889 -0.94999421 39
-3.7506855 1.0352292 -0.91228545 69.375
-3.2360885 1.0374975 -0.869039 134.5
-3.0713992 0.94273418 -0.95971507 26.75
-2.5570788 0.56630015 -0.73466343 57.460316
-2.2527914 0.47819215 -0.82956421 97.199997
-1.8978465 0.46113354 -0.77606499 20.25
4.5501266 -1.2408882 -0.37282869 24
11.657637 -2.8619943 0.31295314 210
-5.5980415 1.8924608 -0.7832576 221
-5.1580906 1.7849383 -0.96857876 38.666668
-4.9627061 1.5613465 -0.91185468 29
-4.0905547 1.4997363 -0.95898873 37.666668
-3.6051209 1.1814969 -0.81267405 153.83333
-3.1974857 1.0789201 -0.86586106 257
-3.0556238 1.0327263 -0.97213829 37
-1.5922649 0.85255438 -0.89896238 9.666667
-0.17459285 0.70341808 -0.6089139 39.136429
0.079588175 0.42449403 -0.59796602 28.082937
-4.6802168 1.9042854 -0.90102559 384
-1.9825246 1.4142647 -0.77410352 75.577782
-0.16089085 0.77146512 -0.64846605 24.286667
0.26455539 0.82100183 -0.62866867 13
0.69634575 0.88610917 -0.79425681 11
-2.4367049 2.0164659 -0.72632307 84
-0.58518368 1.5155432 -0.70754188 11
-0.5243721 1.5534179 -0.77555376 77.75
0.45312899 1.165818 -0.7331264 16.111111
0.84875923 1.0532835 -0.77781653 16.5
2.8343723 0.71655959 -0.42195633 123.75
3.0409806 0.64723998 -0.43732974 118.5
4.5197525 0.18407291 -0.42913738 49.5
5.0489583 -0.0033925176 -0.46194419 51
19.453707 -3.4290633 0.45629296 56
-2.7912962 2.4899228 -0.69247425 40
-2.7512188 2.5475042 -0.6961329 77.5
-1.0434856 2.0266027 -0.94570571 12
-0.52048773 2.0103803 -0.89984196 11.5
-0.37918884 1.9498212 -0.87143427 125
1.3474884 1.3911872 -0.7130248 24
1.4817142 1.376596 -0.73167408 15
1.9280221 1.2842925 -0.47799212 24.333334
2.8919077 0.84571666 -0.34736034 34
3.7827671 0.73263675 -0.63387567 37
3.8132885 0.75024587 -0.410678 28
4.5286064 0.50403059 -0.45004085 29
4.5382838 0.4089489 -0.44450945 38
-3.0306249 3.021826 -1.0189602 29
-0.43650228 2.1726003 -0.61644644 21.25
-0.36158651 2.2498295 -0.70805794 57.75
5.2631679 0.9758206 -0.24688064 146
5.5448694 0.88383478 -0.25010738 56
8.2320499 0.21898359 -0.3023665 50
-0.68632472 2.8880231 -0.89658582 24
-0.31291947 2.6239939 -0.80581695 25
-0.15903214 2.5130196 -0.84928572 56.388889
0.27679175 2.4192095 -0.74724728 38.090908
2.7463834 1.7017431 -0.52401662 25
2.7869513 1.6697078 -0.52358329 25
5.0549026 1.1500099 -0.25165525 273
8.0557404 0.47335398 -0.30960295 135.5
16.269793 -1.2774651 0.31951228 104
17.298925 -1.5519266 0.34675446 114
18.024664 -1.8282676 0.36939368 99
19.902296 -2.2268221 0.41452315 42
-0.23920023 3.0289223 -0.83243501 28.75
2.9667673 2.309135 -0.73656476 22
4.1060324 2.0267394 -0.29025316 20
5.1060863 1.6934915 -0.44015706 48.5
16.126886 -1.0650487 0.30822203 33
2.9298236 2.650629 -0.55327904 25.5
3.0145378 2.4751585 -0.6498509 29.875
3.453562 2.6102509 -0.57647187 48.5
3.9618218 2.3168585 -0.31160399 16
16.323143 -0.86619747 0.30254391 339
20.730425 0.046972871 0.32823083 41
0.32779896 5.3063946 -0.81180072 78.833328
0.64034361 5.1748405 -0.78126919 83.300003
0.92902809 5.1967072 -0.77791095 109.55
1.2325814 5.1044168 -0.61493576 64
6.1880765 4.3145361 -0.53806293 11
16.708344 1.8824811 0.18070574 111
16.733185 2.1012044 0.17027868 125
16.79578 2.3271217 0.15998454 60
-7.9918699 -4.1723242 -0.41464493 159
-7.4059429 -3.7133894 -0.3840805 149.5
-7.4192104 -3.5670598 -0.38939181 132
-6.3404846 -2.8911448 -0.32838508 161.33333
-8.5945826 -1.9549038 -0.53338265 34
-6.7212944 -2.2939165 -0.37648568 96
-6.2455149 -2.5291035 -0.33248332 84
-5.6603122 -2.1840603 -0.42889109 76.458328
-7.1805344 -1.262315 -0.44982275 105
-5.9317822 -1.7302182 -0.3350912 211
-5.8780808 -1.8110175 -0.46120933 237.875
-2.3317137 -2.5816824 -0.18036637 322
-0.21948192 -3.0836542 -0.12243621 242.26666
0.074231565 -3.1373739 -0.1177415 129.35715
-5.8417139 -1.1762164 -0.34870619 37
-5.7765908 -1.2870901 -0.46734053 96.5
0.80866247 -2.9874327 -0.031753164 200.60001
4.5840631 -3.7827179 0.22189175 21
-5.8297443 -1.0048258 -0.48271576 52.5
-2.6996059 -1.6466851 -0.32581547 73.277779
-2.5382495 -1.6574144 -0.30477473 155.68333
-1.8548162 -1.7697256 -0.11830656 105.66666
-1.7373328 -1.848238 -0.16597286 46.111115
0.30896705 -2.4413195 -0.021571156 14.666667
0.91581291 -2.6252983 -0.089066386 192.36667
2.5061359 -3.1259918 -0.042353015 152
2.9618821 -3.0173192 -0.04898582 68.5
3.4822533 -3.247256 0.18525289 54.5
3.608465 -3.2213032 0.18718271 24
-2.4078453 -1.5075803 -0.17686446 124.86667
-1.8384018 -1.4319091 -0.19532607 58.700001
-1.6992683 -1.5164473 -0.18158267 92.045517
0.212596 -1.849467 -0.17188171 57
0.27766299 -1.9449105 -0.095969848 26.333334
0.93504995 -2.1452234 -0.013179031 89.666664
1.017874 -2.3154697 -0.016593378 156.66667
2.2198946 -2.6479695 -0.034364592 139.66667
3.2833145 -2.6700735 0.055233363 191.75
4.3621836 -2.9034061 0.1929142 33
9.9288044 -4.6267619 0.34575376 52
-10.434425 1.0649827 -0.8086319 71
-6.177773 0.0058894157 -0.56201124 67.025002
-5.5297194 -0.17954116 -0.60630381 242.5
-5.4856687 -0.32944784 -0.59378684 270
-1.7687926 -1.3097072 -0.13899134 113.89236
-1.6957917 -1.3519746 -0.16545652 145
-0.2239759 -1.3651731 0.054343548 89.777779
0.17380881 -1.627121 -0.052848589 67.277779
0.37945515 -1.5680468 -0.039922435 41.180557
0.85984212 -1.711359 0.038754914 57.125
3.3278451 -2.567735 0.053548459 188
3.47844 -2.5688717 0.051834051 197.25
4.4296513 -2.6714654 0.18708678 287.16666
-10.217965 1.4800992 -0.87203348 34
-6.1474619 0.276833 -0.43571272 42
-3.9709878 -0.010325044 -0.33424464 24.5
0.35884553 -1.4286687 0.072435901 12
1.0078824 -1.5856354 0.090900987 35.5
2.9652319 -1.756196 0.039747898 34.125
-4.1097822 0.087797076 -0.4389196 39.333332
-3.5514715 0.18503648 -0.39199379 26
3.0074286 -1.4861712 0.032403905 59.952385
-3.1700037 0.5071165 -0.49700561 61.333332
-2.8474998 0.52809256 -0.20812036 21
3.7081811 -1.3415933 -0.086540744 276.5
5.0119867 -1.4454875 0.15482461 48
-5.9521461 1.643379 -0.5281527 111
-5.1490755 1.3936572 -0.68638194 38
-5.1349378 1.2816041 -0.5578233 13.416666
-2.832078 0.58497036 -0.21030323 14
-2.4149387 0.56333357 -0.1753161 39
-0.12678176 0.71104389 -0.37128362 60.104164
0.23893708 0.53458577 -0.22066616 62.394096
0.4215762 0.57033241 -0.081993535 26
-2.1295769 1.5827339 -0.22424909 29.5
0.015392303 0.86294669 -0.24242596 66.363602
0.15871912 0.71079129 -0.1918226 83.10453
-2.4242861 1.9811621 -0.4923335 101.16667
-2.1139209 1.690486 -0.23109888 20
-0.4840785 1.4693913 -0.16076531 54.75
0.061555505 1.3015208 -0.25652176 80.161903
0.24637508 1.2457747 -0.1578971 62.5
1.722522 0.7526384 -0.12551826 10.333333
2.8241804 0.73073655 -0.066014081 152.95834
2.9744444 0.63465017 -0.061881255 102.5
-2.0796549 2.3541553 -0.27879938 22
-0.47609106 1.8035586 -0.14119475 29
0.12363631 1.592303 -0.3045356 10.5
1.3157136 1.3106389 -0.10410624 81.625
1.644567 1.2288153 -0.097429954 79.611115
1.866895 1.2067614 -0.17005409 42.666668
2.823555 0.8359738 -0.073095508 91
3.3157401 1.0936878 0.010155085 126.5
3.7198427 0.74740165 0.035998408 78
3.8467705 0.73076826 -0.073419064 79.75
-0.45772111 2.136502 -0.35178337 21.5
-0.41508454 2.124028 -0.28775483 24.333334
2.6414886 1.5584486 -0.030082207 86.333336
2.8137121 1.3329651 -0.012885218 143.5
3.4072301 1.3635309 -0.0038709687 210.2
3.5281894 1.3782332 -0.0025294172 159
6.0376096 0.82984573 0.068416163 242
8.1197338 0.33520317 0.12462978 91
3.0734618 1.6617315 -0.027996864 81.5
3.2641301 1.613678 -0.021408822 85.5
4.013669 1.4041474 -0.23855467 27.5
5.8369775 1.0399244 0.054431278 250
6.012712 0.90923935 0.063967884 104
6.417901 1.0765657 0.061717737 29
8.0510836 0.48974741 0.1161917 317
-0.27110603 2.9418151 -0.38611984 41
3.9522245 2.0909483 -0.29192612 27
2.9637775 2.621577 -0.32141098 11.5
3.0177195 2.5552597 -0.31567332 10
3.9518268 2.2366478 -0.30439064 25
0.28868365 5.2982297 -0.38583049 28.666666
0.59171003 5.2083197 -0.36531636 56.5
0.88421482 5.1754479 -0.3503603 97
0.9901188 11.322169 -0.83586526 18
1.4735696 -13.95136 0.95841807 106
1.8294566 -14.030019 0.98095083 114
2.2887452 -14.147153 1.0110855 129.33333
2.7517996 -14.229346 1.0394971 109.5
3.1383433 -14.321255 1.0648113 108.5
2.6620669 -11.738382 0.88361621 60
2.8130116 -10.813193 0.83543807 101
9.7630463 -12.591541 1.3262807 36.5
2.8584146 -10.53224 0.82084203 106
4.2285838 -9.7562971 0.84779149 70.666664
4.5523052 -9.8089533 0.86868972 64
1.8096452 -8.4423656 0.63985074 110
2.4088449 -8.7293501 0.68849027 131
0.32288331 -7.7722712 0.52394915 273.5
1.906013 -8.404829 0.64257681 66
2.743995 -7.8848248 0.6556505 33
2.0732365 -7.2821159 0.58364081 75.5
2.3598614 -7.3740859 0.60444587 50
2.919368 -7.783977 0.65911633 47
-13.517023 -3.1464949 -0.22718661 55
-9.1991177 -3.8171647 -0.065774605 27.5
-8.7484741 -1.9628832 -0.14150433 37
-6.1551027 -2.1338558 -0.056230079 160
-5.6185188 -2.0629628 -0.043548714 68
-5.5574327 -2.2080696 0.092893109 114.1
-8.8900366 -1.1180161 -0.18461238 51
-5.9384165 -1.6126122 -0.074608237 213
-5.867609 -1.8001521 -0.063613564 234.8
-5.8095207 -1.2223184 -0.08914572 62.5
0.72514278 -2.7931483 0.24274738 15
-5.8062854 -0.98406416 0.026738036 197
-5.7535381 -1.070261 0.15815984 283
-1.7474852 -1.9219558 0.25913042 30.916666
0.80409282 -2.6133807 0.23660024 50.42857
0.95365363 -2.5729516 0.30985478 74.675003
1.8152664 -2.8618832 0.39537928 32.928574
2.1146741 -2.7419581 0.41031674 112.58333
-4.5607142 -0.64157969 0.11304396 45
-2.3538013 -1.4806907 0.22663054 117.57143
-1.8093553 -1.3575048 0.22465591 47.291664
-1.7221544 -1.4624474 0.23512176 72.099998
2.2459118 -2.6426935 0.41441014 165
2.6049867 -2.6343217 0.54006767 94
3.2476699 -2.7099876 0.38762134 336
3.3562582 -2.6430914 0.50443161 324.875
4.4151912 -2.9256372 0.47125277 234
-6.1626186 -0.0272367 -0.1526792 331.20001
-2.1691961 -1.0630373 0.011815048 42.599998
-1.8065579 -1.2560561 0.15965159 65.142853
-1.4592801 -1.1729248 0.040602878 82.545456
-1.2470218 -1.185919 0.048847381 134.33333
-0.36513409 -1.3378105 0.048944406 142
3.5181272 -2.6008012 0.6323961 226
4.4183559 -2.6774337 0.595891 225.85001
8.6546326 -3.5849364 0.77106786 76
11.304396 -4.2564306 0.97191602 114
-6.1583767 0.27786922 -0.16556713 62
11.399292 -3.9641607 0.96362686 194
11.447145 -3.6586695 0.95181602 207
-5.0279856 1.1186278 -0.19547652 129
11.569388 -3.1368723 0.93448246 262
-5.1223931 1.2119951 -0.20279013 52
-4.4390831 1.2392316 -0.17938259 64.5
-4.321456 1.2407722 -0.17519867 45
11.662383 -2.8433144 0.92640698 167
0.13788491 0.66698641 0.32155398 40.266666
0.1930967 0.7387467 0.16769944 68.776665
-0.49235058 1.5054455 -0.027013708 18
0.15550631 1.0904882 0.02150004 32
2.7901936 0.69276518 0.28608534 180.39999
3.026474 0.58856547 0.40485021 72
19.398266 -3.3864405 1.445972 34
-2.6819324 2.375253 -0.070716098 80.75
-2.0710363 2.3300154 -0.052622613 127.25
-2.0414777 2.2723579 0.021395985 224
-0.31077197 1.7807732 -0.026172791 25.5
0.25374812 1.7127616 0.11631866 90.611115
0.34517568 1.6471267 0.12380372 112.62592
1.3746173 1.4315035 0.082016654 35
2.8717089 0.8774417 0.38004974 193.5
2.9526169 0.90625972 0.38825125 150
-0.095468879 2.165751 -0.026869688 76
0.099319696 2.0080256 -0.011294027 138.2
0.32869387 1.9234228 0.12573744 11
1.6546702 1.5589302 0.094471566 162
0.42845279 2.3395367 0.13870253 21
8.1414299 0.46479684 0.54999334 108
8.2113333 0.36250323 0.55891812 11
16.253984 -1.2440765 1.1458877 108
17.303947 -1.5181925 1.2256052 47
16.179916 -0.932033 1.1270062 70.5
3.9398005 2.5188832 0.33088806 136.66667
4.2088184 2.4972894 0.21728197 164
16.05187 -0.62123382 1.1047933 35
3.8661397 2.679764 0.18919428 247
7.1862359 2.6048641 0.40001383 46
7.0357203 2.9845691 0.37548962 40
10.198477 2.2968509 0.60372472 44
10.154894 2.4262176 0.59559852 131
11.060351 2.3579872 0.65607476 22
16.339058 0.82775432 1.0589433 23
9.6536665 3.2577958 0.52990067 88
11.852983 2.3825552 0.70555913 23
12.631171 2.384691 0.75508696 18
0.68911535 5.5515223 -0.091939107 75
6.1507282 4.4077497 0.26609758 118
9.6868887 3.4116814 0.525828 75
16.69269 1.9217427 1.0341662 111
5.9256797 4.8745527 0.235175 30
9.6564617 3.6879027 0.51288682 48
16.725315 2.1420448 1.0268146 96
16.821854 2.483479 1.018432 59
20.610147 1.9137685 1.2850864 25
2.6362875 -11.739794 1.4694059 76
2.7041087 -11.22433 1.4181453 113
2.8727124 -10.440201 1.3451966 137.5
3.0023799 -10.223197 1.3309901 237
3.1613157 -10.277274 1.3479793 181
3.6123145 -10.172844 1.3695452 119.5
3.6610301 -9.8047743 1.334435 94
3.8853414 -9.6839046 1.3387363 79
4.1982675 -9.7333412 1.3680038 68
4.6219816 -9.8301497 1.4112794 76
4.8591328 -9.8420744 1.4314767 47
-4.9789777 -5.1522303 0.61744297 169.5
-7.8997779 -4.1763663 0.39512384 223
-7.1611781 -3.638248 0.34606251 222.5
-6.2752309 -2.8766103 0.57977289 112
-6.2204881 -2.9251542 0.43278196 141
-8.3491039 -1.8115432 0.24812515 137
8.093358 -5.9889998 1.37569 174.5
-8.2217216 -1.6448104 0.23646529 164
-6.1699963 -2.1561143 0.22923735 213
-5.8444123 -2.0237994 0.34817103 174.25
-5.5193224 -2.227423 0.47741494 208
8.1339369 -5.7887468 1.3638952 219
-8.9212608 -1.0462925 0.2190031 36
-5.8208795 -1.746896 0.32839611 258.20001
-5.5297918 -1.9972484 0.45895177 149
-5.8552556 -1.2303033 0.42547151 164
-5.8074036 -1.1581252 0.41775677 207
-5.9065185 -0.86698508 0.27838364 201
-5.7544489 -1.0550158 0.40795109 285.5
-2.443948 -1.6463554 0.46697241 93
1.7874341 -2.842443 0.73753601 26.950001
2.0969393 -2.7429371 0.7701205 65.5
5.2061863 -3.6895201 1.2279364 115
-1.7944601 -1.3985884 0.42248502 12.25
-1.7229836 -1.433759 0.42015249 5
2.3062634 -2.6636744 0.79433161 91.75
2.5601337 -2.661705 0.83349186 7
3.4912498 -2.6506679 0.86761141 53
5.3431726 -3.3203695 1.0455563 140.20834
-10.258564 0.90179545 0.16390117 255.5
-10.203797 1.0728939 0.15685387 264
-6.5718336 0.1219134 0.12050574 156
3.4974687 -2.5879917 0.86226845 166
5.451683 -2.9870591 1.0325065 103.66667
-9.0197668 1.2865045 0.075449839 84
-6.5840387 0.30569917 0.11377363 115
-4.7523527 1.0427969 0.24044995 80
-8.7539597 2.512423 0.035237927 31
-6.5298066 2.3066077 0.018257875 27
-6.5707312 2.6025145 0.3345373 25
-6.4955401 2.4212372 0.015692938 343
2.7683966 0.73415107 0.54859388 153.75
2.9343808 0.72140175 0.66875517 67
-2.8203661 2.4536235 0.18277013 24
2.9038355 0.91099006 0.75639415 31
2.9131997 0.86531085 0.75794876 63
7.0623808 2.9075916 0.79388165 35
7.105876 2.814966 0.80053079 19
3.5402071 4.2182236 0.72415727 17
3.7232106 4.0813441 0.74260068 14
4.7815766 4.0404682 0.54010028 129
-4.0222311 6.4178815 0.024207491 39
-0.32090425 5.6124372 0.29238531 225
2.6631749 4.9419365 0.65160453 569
2.8107827 4.8212256 0.66229051 330.25
4.7964444 4.2778773 0.54048628 133.66667
5.8701258 3.9452689 0.6513952 120
-0.18655038 5.9537454 0.31319404 162.5
2.7041059 5.234221 0.67082739 200
5.8385367 4.5173311 0.64324218 82
6.0705061 4.3787417 0.66795158 89.5
-0.06341064 6.4117413 0.17558087 92
5.8380885 4.642004 0.6423524 31
-6.8051929 8.2623014 -0.0080645503 42
0.93767112 6.5335393 0.23829706 11.5
1.2399895 6.4948716 0.25780246 9.5
1.5301564 6.273634 0.27430594 115
0.094360948 7.1721435 0.19796683 19
1.4384696 -13.946407 1.6375276 132.5
1.8837006 -14.037122 1.6735098 153.66667
2.3405499 -14.135348 1.7117318 109.5
2.7179539 -14.225825 1.7450016 116
3.097878 -14.292068 1.7763608 104
-14.535539 -7.8769765 0.75245142 37
9.6417732 -12.931237 2.1456273 57
9.7614069 -12.611058 2.1258388 99.5
9.8518114 -12.265181 2.1012919 110
-13.538548 -3.3561904 0.43311587 42
-13.500077 -3.1012645 0.41758439 55
-7.9976711 -4.309741 0.81385469 123
-8.0234852 -4.2087979 0.80540335 191
-7.3368788 -4.1678648 0.76376545 47
-7.4009814 -3.5772388 0.70988339 101
-6.7602253 -2.9719715 0.7820971 50
-6.2098618 -2.1334243 0.79943275 37
-5.8651838 -2.1292338 0.76116323 146
-5.9974141 -1.6805358 0.73548728 83.5
-5.9792895 -1.7794967 0.7418043 105
-5.8047552 -1.1456373 0.67235994 14
-5.8345904 -0.96656764 0.79510987 100
-5.7873573 -1.0160053 0.66162699 200
11.217262 -4.6227155 1.6100864 20
11.307318 -4.327023 1.6006171 94
11.390488 -3.9492481 1.5856044 176
11.467487 -3.5715578 1.5707157 240.66667
11.568381 -3.1220758 1.5549895 242.66667
-7.678473 2.145179 0.39588451 117
-7.3149567 2.246124 0.37476566 221
-6.9310293 2.3186986 0.35344845 211.33333
-6.8515797 2.6032269 0.34905082 264.5
15.957183 -0.59176373 1.920862 35
16.380575 0.86304134 1.9062688 43
-0.30811697 5.589963 0.73026407 413
1.7535272 5.0894132 0.85893083 15.5
2.6499717 4.9614758 0.96057516 410
2.757983 4.9181232 0.97158402 447.5
-0.21884909 5.8345857 0.76408029 152
2.6832359 5.1645088 0.98383611 207
6.1584401 4.2228765 1.0821468 298.5
6.3879452 4.1314578 1.1139359 267.5
6.5790491 4.0699587 1.1409963 312
