# .PCD v0.7 - Point Cloud Data file format
VERSION 0.7
FIELDS x y z intensity
SIZE 4 4 4 4
TYPE F F F F
COUNT 1 1 1 1
WIDTH 1280
HEIGHT 1
VIEWPOINT 0 0 0 1 0 0 0
POINTS 1280
DATA ascii
-1.0970579 -9.6401196 0.93577921 330.96429
-0.75622356 -9.7213097 1.0766271 312
4.2285838 -9.7562971 0.84779149 70.666664
4.5741663 -9.8349962 0.97865653 84
4.9368691 -9.9161968 0.96544945 77.75
5.617466 -9.8285484 0.84867615 97.5
-2.8256943 -9.2458544 0.87214136 296
-2.5933251 -9.3167334 0.99067241 284.08334
-2.2471302 -9.3913822 1.1462715 334.58331
-1.7681518 -9.5055761 0.93313694 322.5
-1.4650042 -9.5644112 0.96732754 344.125
-0.18278094 -9.5369358 0.94807631 325.5
5.6902113 -9.5421028 0.83959734 118
-3.4177406 -9.0525579 0.93374568 221.8611
-3.1689928 -9.1959515 1.0640751 309
-3.8009155 -8.7196465 1.1800603 183
-14.422603 -7.8214903 0.88008815 60
-0.43560407 -7.7369118 0.99389887 130.5
0.33888468 -7.8641276 0.83259422 35
-10.244478 -7.2343755 1.0977939 94
-2.4133031 -7.4620743 0.86510301 207
2.203006 -7.3556032 0.8094936 27
-14.251924 -7.0933809 1.1071653 145
-10.437613 -7.1750002 1.1707093 66
-3.1156883 -6.9493699 0.89854568 115.33334
-1.3591913 -6.8444057 0.89029694 132.33333
-14.162889 -6.7399263 1.0627666 115.5
-9.7646236 -6.7325916 1.1875381 63.25
-5.67732 -6.6350765 1.0227832 34.5
-1.4089544 -6.7082453 0.98666877 94.800003
8.9734392 -6.5848737 0.91719604 33
-13.358474 -6.0582371 0.96835834 110
-13.294792 -5.7510376 0.93057561 106
8.1774902 -5.8369503 1.1046118 82.833336
-13.993303 -5.4850149 1.1772211 39
-13.224071 -5.4468989 0.89332199 30
9.7360687 -5.3460536 0.86851227 47.5
-13.769316 -5.0128179 1.1302712 77
-13.261533 -5.0120678 1.1033975 49
-7.0688467 -4.8011689 0.86933744 25
-6.5328398 -5.1071258 0.80626285 69.5
-5.5026593 -4.9196701 1.071599 43
-13.653299 -4.4113345 1.0812063 49
-12.842915 -4.4985142 1.0436046 64
-8.0183029 -4.7031083 1.1518523 62.5
11.343014 -4.4969444 1.031522 27.5
-13.638818 -4.1327052 1.0614398 136.5
-12.852895 -4.3201995 1.1137824 63.5
-8.0234852 -4.2087979 0.80540335 191
-7.9976711 -4.309741 0.81385469 123
8.5145741 -4.1402235 1.1722186 28.5
9.9741287 -4.3116488 1.1089692 24
10.064878 -4.131813 0.94471395 35.5
11.333879 -4.203927 0.99130982 161.01851
-13.516629 -3.7387075 1.128071 168.5
5.2478595 -3.6712735 1.0279989 111.91666
8.5571814 -3.8922217 0.98442197 41
10.10104 -3.9242837 0.83450204 36.666668
11.426089 -3.7900555 0.97312582 182.86667
-13.576132 -3.4906292 1.0871837 48.5
5.3342018 -3.4096513 1.0287519 93.381668
11.500012 -3.4294355 0.95285028 151.16666
-13.495304 -2.9380107 0.98696601 51.25
-6.8268962 -2.9245844 0.92245346 56
-6.7254753 -3.0076983 0.90748751 43.5
-5.5250902 -2.9382727 1.0234058 24.5
-2.5798316 -2.8395476 0.85824084 75.75
-2.3744843 -3.0778637 0.89581829 61.444447
1.8524343 -2.8359213 0.97369742 12.833333
3.8895795 -2.9983389 0.9038403 11.5
5.4418669 -3.05602 0.9633708 112.55501
11.569997 -3.1190109 0.97066373 209.69048
11.634501 -2.9123919 0.92518973 141.22916
-13.32198 -2.6051419 0.96395612 102.33334
-7.9839067 -2.7557116 0.8689217 131
2.1401305 -2.7617903 0.91129595 31.007439
2.5226893 -2.6749759 0.87943816 9.166666
3.4949911 -2.6231148 0.85452825 132.16667
4.3368664 -2.7058702 0.84141219 143.41667
-13.275391 -2.3653681 0.88590229 120
-10.143159 -2.2286344 0.83378869 74
-9.0125141 -2.3558702 0.88481969 96
-6.4595518 -2.1212952 0.83265781 91
-6.2596478 -2.1280007 0.80398208 142
-13.084658 -1.89827 0.9883036 136
-5.9920716 -1.6870929 0.88593352 24
-13.044032 -1.5737635 0.92119676 73
-12.467415 -1.2049533 0.89501619 26
-11.504715 -1.3265331 0.89185876 89.5
-10.287855 -1.4904172 0.87141931 102
-6.8025761 -1.2259941 0.90439391 36.5
-6.792232 -1.2256202 0.8658551 62
16.239996 -1.2651037 1.1570867 107.66666
-12.554644 -1.0615956 0.88982379 51
16.238503 -0.99418938 1.1447203 105.4375
-12.853336 -0.46773148 0.86652237 42
15.9777 -0.6426934 1.0935116 46.5
16.026699 -0.68644536 1.1265299 53.099998
-12.84812 -0.35652405 0.8597697 42
-12.638865 0.35132176 0.85648459 28
16.236746 0.41001138 1.1498781 22
16.377907 0.90165395 1.0653696 37.5
16.403366 0.9020651 1.1433133 31
16.563246 1.2975688 0.96806711 33
-12.282496 1.9906094 0.83459973 20.5
-7.526206 1.6302412 0.85025752 80
16.698587 1.8729498 1.063657 91.555557
20.541597 1.8873754 1.1511101 24
10.145559 2.3447239 1.0571806 203
12.719131 2.3712182 0.85705954 24
16.753744 2.253047 1.0247095 109
-12.14854 2.6551919 0.81584358 69.5
10.130733 2.4055517 1.1008379 139
12.123512 2.4014802 0.81038851 20
16.792681 2.4471776 1.0406423 112
16.814997 2.4756145 1.0374815 68.5
-12.126058 3.0073247 0.81021672 45.5
7.105876 2.814966 0.80053079 19
6.2776442 3.5406671 0.92608464 161
9.6561279 3.5245926 0.90261149 167.5
13.339676 3.4653647 0.87414402 134.66667
4.1148639 3.9145296 0.89556718 6
7.178122 3.7170367 0.81606448 32
9.7081451 3.7756872 0.93786728 119.25
3.0959845 4.3896914 0.85527003 44.333332
3.4044449 4.2489195 0.86917043 31.489586
3.6593561 4.1093578 0.89253259 22.666666
5.5462914 4.3992791 0.80513567 164.5
6.2347708 4.1923795 1.0609088 317.02084
6.5557265 4.0783367 1.0908552 270.72223
9.7899265 4.2027063 1.0543442 105.3125
3.1239045 4.4043565 0.93768144 8
5.1598167 4.4853745 0.88233924 51.25
5.3155289 4.4999871 0.89807189 89.75
6.2133088 4.6161866 1.0443815 281.14816
9.5452948 4.5202436 1.136088 81
-11.611831 5.0429354 1.1786294 85.5
-11.567492 5.173264 1.1545235 63
1.7375178 5.0711336 0.84229529 23
2.6980064 5.0046144 0.9622758 324.53333
2.9782646 4.8767896 0.99184996 347.82501
6.294745 4.9809275 1.0825416 226.03029
2.7221615 5.4117007 1.0002086 145.66667
5.0282903 5.4765544 0.96835238 186.69446
6.652348 5.5221667 1.1875087 14.25
-0.84832382 5.7340541 0.9791882 373.375
-0.60673249 5.6793256 1.036754 386.14774
-0.29416463 5.7517366 0.99397236 274.92856
2.7872076 5.6797214 0.96685869 166.75
3.7532179 5.8896618 1.0312201 117
5.0076776 5.6078386 0.92723495 181
6.5134792 5.7793336 1.1537658 16
-11.339574 6.2461329 0.98889732 137
-0.17167354 6.189878 1.0252298 125.94444
1.5530659 6.2343812 1.0029676 161.67857
2.9720218 6.3058524 1.0528891 36.42857
6.5854778 6.1371803 1.1260953 16.5
-4.1377659 6.4972987 1.1578215 194
-0.10742596 6.4822483 1.017519 132.25
2.9719656 6.4270015 1.1453576 26
-7.3200731 7.194808 1.1052047 142
-1.9292434 7.092669 0.94848973 124.83334
-0.077362366 7.0611315 1.1297686 42.75
0.042100713 7.0861702 0.95568168 35
-7.7457328 7.2841487 1.1459526 77
-7.4629464 7.2174377 1.1203158 42
-1.8684472 7.2661743 0.94556051 18
0.062150065 7.4036922 1.0054338 14.833333
-7.1483479 7.8542304 1.0069867 163
0.13971479 7.6926537 1.037209 11
-7.0898132 8.2178745 0.96368062 110.3
-17.887186 9.5270119 1.1430184 33
-17.858103 9.6170673 0.94077361 49
11.283796 -16.154694 1.5333745 18
9.5855436 -14.605302 1.3205843 28
1.837781 -14.040852 1.4528471 158.5
2.1973152 -14.119911 1.4836507 133.25
2.5178504 -14.186882 1.5110307 112
2.9845357 -14.292815 1.4729258 120.5
9.7241964 -14.235457 1.3119243 62
-0.16969264 -13.614587 1.3135253 89
0.2213295 -13.681844 1.2946762 153.5
0.66236937 -13.779282 1.3729901 168
1.0237222 -13.855596 1.3685378 130.04167
1.4238559 -13.956441 1.4424592 151.41667
9.829545 -13.636966 1.3175751 62
9.6919746 -12.942307 1.2737414 29.333334
12.329249 -12.802992 1.4503567 11
12.739024 -12.90409 1.4685392 43.25
12.966377 -12.959688 1.3693748 46
13.418835 -13.031975 1.5171506 47.5
13.704278 -13.087282 1.2575064 36
9.7768888 -12.634974 1.2802998 60.099998
11.049301 -12.539051 1.3176169 18
11.342236 -12.574393 1.3567524 56.333332
-7.0088229 -12.088924 1.4556001 171.16667
-6.5474563 -12.202731 1.435762 155.83333
-6.236515 -12.258377 1.5060381 168.5
-5.9893856 -12.310415 1.5134053 160
9.8482389 -12.395578 1.2598153 74
-8.9335995 -11.600947 1.3739471 126
-8.5873394 -11.666226 1.411694 111.25
-8.2684355 -11.744774 1.4153681 160.5
-7.6864276 -11.861496 1.4066309 159.44444
-7.3740735 -11.965813 1.3858585 169.5
2.666271 -11.693375 1.3485498 105.33334
9.9819212 -11.967775 1.2456344 91.333336
10.418503 -11.876508 1.2665156 47
-9.1070204 -11.531946 1.3708396 109
2.7051172 -11.218529 1.508538 117
5.8817706 -11.203857 1.2913733 153
6.230648 -11.271324 1.5938852 76.5
2.7620876 -10.951587 1.3844131 120.66666
5.9155903 -11.185684 1.5592139 132
2.863296 -10.48573 1.301322 128.25
-16.052048 -10.022475 1.4973077 32
-15.888695 -10.180993 1.5159752 38
3.0734017 -10.255745 1.3414167 196
3.2951596 -10.322435 1.3632119 159
3.6123145 -10.172844 1.3695452 119.5
-1.2131791 -9.6223965 1.4471036 303
-1.0422938 -9.644804 1.3720591 350.46667
-0.77041757 -9.702774 1.3626077 333.625
3.7448323 -9.7894182 1.3362688 86.666664
4.1988182 -9.7434168 1.3978316 105.16666
4.5682983 -9.8243332 1.3639195 74
4.8906546 -9.8656225 1.3940852 53.333336
-2.9531796 -9.2259283 1.3824635 339.11111
-2.5947385 -9.2983303 1.4109564 288.31668
-2.1752002 -9.3987646 1.3730803 297
-1.7376491 -9.488389 1.4411874 341.13889
-1.4650172 -9.5492401 1.3342735 343.16666
-0.23277858 -9.5140076 1.3475796 358.625
-7.2291126 -8.998682 1.3590009 108
-3.6185882 -8.8585815 1.2951198 306
-3.4061425 -9.1284294 1.3336892 279.60001
-3.1635096 -9.1799078 1.2953577 338.5
-4.0229645 -8.7214031 1.4135838 116.5
-3.8885727 -8.7122498 1.2527281 315.66666
-3.5997934 -8.7764416 1.2332314 321
-7.1132979 -8.3932438 1.279802 131
-14.547077 -7.8663063 1.4006611 95
-7.2674918 -7.9537439 1.2299218 221
-14.421443 -7.5721436 1.3689709 95
-14.340183 -7.2969303 1.3995275 127.5
7.8157353 -7.4458756 1.3944793 155.16667
-14.272014 -7.0057511 1.3633957 66.333336
7.9019871 -7.0693693 1.37676 189.75
-14.142082 -6.537714 1.4286543 123.33334
7.9304128 -6.6792083 1.5718091 59
8.0088043 -6.6031871 1.3687882 164
8.7619915 -6.720427 1.2806182 32
-14.076222 -6.1214209 1.2309541 111
8.0909977 -6.204072 1.4183083 105.5
-14.014817 -5.7922173 1.2019496 97
-13.993013 -5.9503465 1.4338894 103.5
8.1018229 -5.9102516 1.3947339 187.375
-13.891885 -5.3673196 1.5904145 145.5
-13.743135 -4.8912215 1.3063314 51
9.9479256 -4.8643703 1.4595406 21
-13.686309 -4.5679779 1.4709753 145
-8.0625505 -4.6718473 1.2768276 84
9.9258614 -4.794848 1.3886971 18
11.199027 -4.6353469 1.5794207 22
11.248154 -4.5456147 1.4875153 30.071428
-13.634389 -4.298985 1.3347831 119
-13.583747 -4.111033 1.2181082 155.5
8.4461365 -4.2602406 1.2526377 20
11.32302 -4.1653724 1.5298277 191.1389
-13.517267 -3.8258336 1.3651459 149
5.1900573 -3.7207289 1.3534895 74.5
5.2061863 -3.6895201 1.2279364 115
11.41849 -3.7766802 1.5285425 225.07143
16.035465 -3.8043756 1.2975278 76.333336
-13.538873 -3.3310406 1.305724 70
5.28333 -3.4326534 1.4119226 146.56667
11.505109 -3.3847716 1.4911408 230.94444
19.426231 -3.3868809 1.461731 35.700001
19.674845 -3.2736013 1.4304018 6
5.3859987 -3.1003551 1.3655417 164.71428
11.573293 -3.0512571 1.5151346 224.70833
11.616954 -2.8944135 1.4928011 166.7
-13.322973 -2.600054 1.5560417 88
-13.318967 -2.352354 1.5433207 15
-19.493145 -1.6815867 1.4112563 64.666664
-18.463631 -1.8505529 1.370151 46.5
-18.219015 -1.9801806 1.4758034 30
17.992434 -1.8161635 1.287118 27
18.059607 -1.6825023 1.2773854 51
-22.563965 -1.5654457 1.5855787 22
16.293814 -1.3951331 1.2159804 36
17.304356 -1.5435106 1.2523898 38.75
16.245975 -1.0895278 1.2019215 129
-12.829397 -0.57650489 1.508561 47
20.270018 0.22209486 1.3793602 33
-12.605284 0.40002662 1.4329011 45
-12.405579 1.4963651 1.3781993 69
-12.38581 1.3852587 1.3287753 59
20.607834 1.8348744 1.3311421 29.375
-12.780782 2.1645424 1.4566295 39
-12.254642 2.1952488 1.344957 13.375
-10.164394 2.383178 1.4957277 76
20.729462 2.049794 1.3498727 23.666666
-12.171444 2.5193443 1.3508663 50
13.166919 2.691571 1.4721985 157.66667
13.430926 2.6074538 1.5027565 85.933334
13.644758 2.4801686 1.5268161 22.5
-12.192784 2.9010696 1.3721644 61.166668
13.182749 2.8195848 1.4870468 149
13.224154 3.009408 1.4841281 143.08333
-12.092733 3.2675395 1.4546221 74
-11.947346 3.5408208 1.3704879 157.75
9.7803173 3.4119716 1.4882741 165.625
10.206412 3.2738614 1.5770612 53
13.327748 3.4274201 1.5117501 141.35715
-11.875628 3.8144224 1.3106605 108
9.7117701 3.8073306 1.5054893 201.33333
6.2378378 4.2069116 1.4674771 288.2222
6.5163908 4.1077533 1.5042932 290.18332
9.8075285 4.2998509 1.50173 196.66667
-28.504036 4.6032639 1.5813997 20
6.2224927 4.6453261 1.4706638 254.81483
8.7859688 4.7153907 1.5455784 128
8.9918919 4.6741381 1.5317771 106.21429
9.4162645 4.5848875 1.4862595 124.78789
10.327554 4.6837416 1.3563523 23.5
-28.421263 4.9438272 1.560859 30
2.697118 4.9905081 1.3456535 346.20712
3.0039821 4.879611 1.3924479 404.49612
6.2982259 4.9921165 1.4412154 226.38887
8.2287626 4.9169688 1.4688549 161.33333
8.5143929 4.8714194 1.3996269 125.925
9.5701942 4.8064876 1.3688192 25
2.1969461 5.461144 1.2785959 6
2.7017462 5.3279362 1.4135038 148.25
4.2592754 5.5866137 1.5555646 185.66666
4.6893153 5.5449047 1.5956534 319.75
5.0000725 5.5104051 1.4121443 179.49998
5.3595695 5.4262662 1.5873615 127.77777
5.8773756 5.4055071 1.5654796 86.083336
6.1680093 5.2729907 1.5735788 115.33334
6.6130223 5.4519725 1.3595088 25
10.079847 5.4419808 1.4902935 27
-0.83099401 5.7475314 1.4755485 377
-0.57676029 5.700315 1.4334974 364.00696
-0.28157625 5.8123646 1.3926938 246.86665
2.7193873 5.792861 1.4002556 222.47144
2.8248484 5.8432498 1.5252203 161.66667
3.8440859 5.8642073 1.4407334 218.75
4.1475782 5.8227668 1.4822191 202.41667
4.5977111 5.6983514 1.4577024 218
4.9393506 5.6318421 1.4135375 298.92499
6.5277419 5.7062149 1.3889908 17.870371
-0.15968226 6.2045746 1.4491153 140.75
0.90345001 6.3588791 1.5791535 208.89999
1.5037671 6.2612982 1.410098 252.52856
1.7345401 6.2731042 1.4284239 44.5
2.2180204 6.1817708 1.5155492 122.79167
2.5827031 6.0866346 1.5180359 112.91666
2.9992607 6.3866634 1.3801547 31.666666
6.5520835 6.1842275 1.3863009 12.888889
-4.1411386 6.4757595 1.4263985 193.75
-3.7517428 6.5538855 1.3347577 194.25
-0.092104159 6.4955611 1.3778503 117.7
0.19894448 6.5523705 1.5546482 214.52002
0.62119824 6.500545 1.5349617 176.72501
1.0493464 6.4794168 1.511228 57.599998
1.4213095 6.5014567 1.4889051 44.611115
1.8605404 6.4962153 1.5055888 31.5
2.0764227 6.4081497 1.5015074 10.2
2.9955316 6.5787268 1.4324419 17.6
6.5763998 6.4415636 1.2231256 14
-3.6541049 7.0098252 1.4058366 235.5
-1.9303037 7.1081867 1.3379326 117.11111
-1.2730327 6.8412027 1.5746996 240.75
-0.029738942 7.1223946 1.3588954 35.833332
0.026292617 7.0832896 1.3239118 33.166668
3.048789 6.9274759 1.2003725 20
-2.6652074 7.3396659 1.436455 17
-1.8846974 7.2894669 1.3421483 26
0.10869626 7.4519515 1.3151896 13.125
0.21264762 7.7392592 1.3490708 7.5
-10.842301 8.1554708 1.459126 100.83334
-10.754103 8.3526688 1.4192891 105.75
-7.1177254 8.140521 1.418509 85.666664
-6.5810714 8.1730528 1.3575602 88.125
-6.1659927 8.1269922 1.3553059 60
-10.726791 8.6025391 1.4525272 80
-10.723241 9.0333214 1.4373231 136
-21.357841 10.672499 1.3382775 56
-21.247633 10.952394 1.3387283 31
1.8812766 -14.032372 1.7830659 165.08334
2.3323593 -14.132318 1.8241878 132.41666
2.7179539 -14.225825 1.7450016 116
2.9866371 -14.276784 1.7581168 111.79167
-0.057590023 -13.625096 1.7252566 107
0.19690652 -13.663088 1.8550456 178.56667
0.60754919 -13.748551 1.852598 202.25
1.0260118 -13.844424 1.8913637 177.25
1.4415035 -13.941446 1.7448809 154.75
1.6170119 -13.971162 1.8678869 185
-0.21063095 -13.568917 1.9711329 190
-7.0003395 -12.11796 1.6848596 180.91666
-6.5517254 -12.176814 1.7193915 152.33333
-6.1945715 -12.280441 1.706776 192.33333
-5.9830074 -12.345905 1.6980765 199
-8.9680157 -11.622645 1.6706316 143
-8.571003 -11.714996 1.6744807 141
-8.1967707 -11.803048 1.7006732 148
-7.8385243 -11.873938 1.6610888 134.75
-7.3909836 -11.962833 1.6451867 136.875
2.6693764 -11.688901 1.6554844 81
2.6593995 -11.320968 1.8694088 116.5
6.223475 -11.260509 1.9418862 167
2.7491403 -10.977715 1.8401113 126
4.1540351 -10.806938 1.9550443 173
4.4935255 -10.879355 1.9982065 174
5.1833186 -11.03021 1.8045369 190
5.7453904 -11.16969 1.8797075 174
2.8316548 -10.587909 1.7855185 128.83333
3.7605247 -10.667506 1.8853899 143.77777
3.0096443 -10.240308 1.7483041 229.10001
3.3593686 -10.317766 1.8224761 195
-17.580038 -9.7137518 1.8739892 76
-1.2060459 -9.6052971 1.7732351 339.33331
-0.94538075 -9.6288462 1.7384013 260.73334
-0.70134836 -9.7056341 1.66307 325
-7.2741699 -9.2313128 1.8768886 41
-2.9462481 -9.2132616 1.7374345 332.66666
-2.5537305 -9.2952108 1.7569803 251.8125
-2.1838076 -9.3479433 1.7649145 214.16667
-1.714187 -9.4951878 1.7756029 250.77779
-1.4602332 -9.4166679 1.7849965 136.16667
-0.97090137 -9.2172728 1.8381665 55.666664
-0.56059676 -9.3622761 1.792629 107.95833
-0.24419355 -9.4720955 1.8032205 271.31668
-7.2655492 -9.0243464 1.9209609 108.33334
-3.4638417 -8.9965305 1.747983 195.11667
-2.8758748 -9.194252 1.8384668 43.333332
-2.61677 -8.8365097 1.9301184 42.833336
-2.1858604 -8.9259462 1.9463357 42.333332
-1.7631868 -9.0400496 1.9179606 50.222225
-1.3486445 -9.1128616 1.9114374 53.375
-7.2186079 -8.7310486 1.7956777 62
-4.1042819 -8.6371841 1.9775383 43
-3.8123393 -8.7019768 1.699769 292.9375
-2.9443123 -8.7737236 1.9218626 52
-8.4326534 -8.040864 1.7566218 95
-8.1239471 -8.0871925 1.8260221 75
-7.8851748 -8.0931721 1.7716399 158
-7.0946646 -8.2226791 1.819133 130.5
7.6090665 -8.3340054 1.977353 164
-14.466352 -7.7585044 1.8165355 84
-10.183765 -7.6394968 1.8605063 113
-9.6896553 -7.7226768 1.7489878 141.66667
-9.3417835 -7.792263 1.7764177 114.25
-9.0159607 -7.8935475 1.9009109 128
-8.615016 -7.9665833 1.7510431 84
-7.7595334 -7.9854488 1.8245931 108
-7.3467112 -7.9321394 1.749753 201.5
7.6695423 -7.8523331 1.9228427 186
-14.355667 -7.4257936 1.7652872 99
-10.863235 -7.2114549 1.6911718 111.5
-10.565836 -7.4126482 1.889616 103.6
-10.384512 -7.5768766 1.6903415 99
-14.24957 -6.9988332 1.841578 138
-10.994859 -7.124249 1.8193849 81
-10.748219 -7.1411724 1.8352708 16
-14.187203 -6.6286721 1.8749601 81
-14.092999 -6.1757808 1.8622336 104.16666
13.487009 -6.1599765 1.8796374 73.099998
-14.017265 -5.7544441 1.9443495 74.5
-13.962066 -5.729424 1.8229748 102.5
13.567842 -5.9283342 1.875762 78.5
13.654217 -5.9184561 1.9284889 27
-13.914824 -5.3936791 1.9020634 91.300003
-13.836884 -5.0045652 1.8327981 96.666664
-13.718585 -4.5378199 1.9053507 106.5
-11.787998 -4.6267633 1.7808995 144
11.249354 -4.5475793 1.7540588 26.583334
-13.671037 -4.2357655 1.8362674 133
-13.590576 -4.0592289 1.8554997 155.5
11.328033 -4.2034473 1.7006918 176.16667
19.806252 -4.3686342 1.6548339 29
-13.606577 -3.9618297 1.8363166 160.25
-13.52123 -3.6824555 1.8545992 131.875
11.409364 -3.8414323 1.7295015 207
-14.843635 -3.2011423 1.9440114 22
-14.179522 -3.4331703 1.9014117 26
-13.751319 -3.490598 1.8619541 33.5
11.494624 -3.4651289 1.7017857 173.91667
-13.510063 -3.1115866 1.7074115 52.333332
11.569489 -3.0876749 1.6735686 190.41667
-13.303465 -2.5986409 1.7118981 86.099998
14.386131 -2.4520326 1.752396 34.5
14.338557 -2.2949021 1.7650219 68
14.417292 -2.1503291 1.7701275 45.400002
-22.550882 -1.639055 1.7441986 29
-17.193018 -1.6593783 1.9327698 18
-23.55784 -1.3578721 1.6277328 20.5
-16.908438 -1.1547204 1.9942857 22
15.972931 -0.70050168 1.9178717 90.875
-17.114346 -0.34465092 1.9587972 18
-17.272034 0.067639276 1.9493335 13
-12.554732 0.67215979 1.9998344 48
16.180792 0.42814505 1.9483821 37
-12.470641 1.0205933 1.9589641 196
16.377638 0.93344623 1.8923273 29.6875
16.432859 0.84048045 1.9653604 8
-17.212963 1.3061796 1.9087232 16
-12.406882 1.478503 1.9463552 216
-12.380828 1.4392033 1.9145246 210.66667
15.234907 1.4833508 1.7165669 47
-12.161064 1.9030213 1.9352702 97.666664
15.20546 1.6490892 1.6525681 63
16.666256 1.8991239 1.9208428 84.85714
16.908331 1.7682867 1.9309345 21
-17.605852 2.2718482 1.8833297 16
-17.5159 2.0346034 1.9304782 29
-12.24966 2.1744802 1.8558486 280
16.734753 2.208302 1.8687878 105
-12.253523 2.5719972 1.8302774 225
16.792435 2.5140476 1.8627112 127.375
16.831993 2.6369116 1.8630848 118.35714
-17.768373 2.9297302 1.8583374 20
-16.91633 2.8574171 1.970368 16
16.935722 2.8789573 1.915725 41.599998
-28.830154 3.2507925 1.8268056 18
-16.80237 3.4607229 1.9501703 22
-9.8529282 3.3535492 1.9948983 82.666664
9.7199335 3.4929092 1.7478338 159
-28.612623 3.9121158 1.6208746 19
-11.868179 3.7688229 1.8018173 183.33333
-11.170375 3.6405466 1.9356911 26
9.731637 3.8173008 1.7106969 210.14999
-28.608824 4.1681576 1.6385782 14.5
-11.760038 4.242589 1.8810446 100.375
6.2146721 4.2316642 1.8878568 273.2619
6.4936533 4.1262708 1.9016798 263.05554
9.7763586 4.2693815 1.7151027 207.19446
-28.516901 4.750217 1.6169381 23
-11.670926 4.5949144 1.8493818 106
6.2155089 4.6509895 1.8903421 244.25
8.1043787 4.7799454 1.6615456 195
8.5371761 4.7339544 1.8489358 120.5
9.3473778 4.5085979 1.6261492 169.5
9.9711533 4.5295639 1.7231979 17
-12.574821 4.9561992 1.8008349 30.5
-11.64617 4.9076614 1.7835219 189
2.7135258 4.9916263 1.786207 321.94
3.0121529 4.8800459 1.775888 365.25378
6.292841 4.9815497 1.8207232 190.94444
7.9163804 4.8481236 1.6291569 154
8.5372105 4.9416304 1.8805152 58.57143
-10.754284 5.4434919 1.9498118 19
2.7268512 5.4173346 1.7937344 142.5
4.2512045 5.5612545 1.674378 90.5
4.4802537 5.5252838 1.6591142 115.77777
5.036902 5.5014133 1.8199432 139.33333
5.5271697 5.3646154 1.6102213 248
5.7568502 5.3223586 1.6559527 100.75
6.1875176 5.2273393 1.602145 256
6.5034533 5.436758 1.6050062 26.75
10.084066 5.5749998 1.6314925 29.5
-14.849344 5.7260299 1.6881808 17.5
-10.529943 5.7545581 1.9205322 41
-10.109343 5.6673088 1.9822257 58.5
-9.982419 5.9793305 1.9737105 51.333332
-0.8932246 5.6693969 1.7217466 166.33333
-0.53609091 5.6724916 1.7615337 342.07748
-0.28285924 5.8012762 1.8196545 218.55832
2.782866 5.7349143 1.7742342 123.5
2.8143907 5.8427763 1.867087 86.800003
3.8316665 5.727036 1.6016182 36
4.0341539 5.6168694 1.6228327 87.5
5.0812263 5.7487736 1.8886288 25.625
6.5064292 5.7259316 1.7795333 15.940475
-9.8331203 6.1990433 1.9588025 46
-3.8387866 6.3856707 1.7509553 106
-0.1676904 6.197391 1.8643876 116.66666
1.5180554 6.2426796 1.8028284 153.22223
1.8238976 6.1732922 1.6355543 175.60001
6.5681834 6.3095465 1.6375134 13
-4.169167 6.4974289 1.8461548 207.75
-3.7588024 6.5937757 1.745594 216
-0.080666423 6.5050354 1.8464545 88.5
0.7113499 6.4377189 1.6082857 79.75
2.9942918 6.4680953 1.8939123 20
6.5414815 6.4983325 1.6806625 12
-15.820718 6.8032813 1.6435578 21
-13.907459 6.9931631 1.6800381 26
-9.2869835 7.0193925 1.8861874 44
-3.6935272 6.8907018 1.8037126 204
-1.9163631 7.0944653 1.7426022 87.25
-0.037110448 7.0628643 1.9709834 32
0.0066457987 7.1309853 1.75957 28
-13.633674 7.2941465 1.6678597 9
-9.9804487 7.359509 1.9403946 30.666666
-7.7315536 7.277513 1.7074832 48
-7.3266711 7.3148627 1.6557332 130.33333
-3.6513216 7.2124038 1.9598688 130
-1.8743618 7.3252902 1.7451819 15
0.050454199 7.3058944 1.7621435 21
-11.86036 7.8638058 1.7081879 25.5
-5.4688711 7.886003 1.7423414 110.5
-9.5495481 8.2433176 1.9293333 30
-7.2187467 8.1405993 1.917877 29
-7.1919231 8.3173676 1.8250799 81.5
-7.1330051 8.5225391 1.790122 24
2.5264909 23.50079 1.8021258 8
2.8132424 23.442537 1.8173699 9
9.503087 -14.631563 2.2150154 19
9.6077414 -14.412582 2.2036958 57
1.8555818 -14.035117 2.1901605 162.5
2.1714544 -14.098676 2.2483032 143.6111
2.6734555 -14.208001 2.2595568 151.5
3.1780376 -14.315181 2.2845285 140.5
9.7110176 -14.021727 2.1766224 78.5
0.10067229 -13.641975 2.2324119 213.5
0.54074639 -13.743478 2.0588219 169.66667
1.0265512 -13.849397 2.1692369 170.5
1.4185002 -13.936829 2.1638436 171.39999
1.6898146 -13.986265 2.2158344 177.5
2.6467469 -13.887207 2.3946834 39.25
2.9863224 -13.667856 2.3861682 24
9.8051271 -13.632629 2.1492281 81
3.1425269 -13.597564 2.3874872 34
9.8725786 -13.38793 2.1329341 77
0.23075286 -12.827785 2.3983483 51
1.7271017 -13.042496 2.396625 50.5
9.6829281 -12.90731 2.1098366 60.5
0.67855704 -12.668952 2.3973136 66
0.96862167 -12.536887 2.3928068 57.666668
2.611341 -12.64566 2.3983612 53.25
9.7614069 -12.611058 2.1258388 99.5
11.4166 -12.578098 2.1963408 76
11.955227 -12.728698 2.2616699 83
12.263147 -12.757333 2.2939949 82
-7.3382888 -12.007882 2.0764878 164
-6.9794068 -12.070088 2.1627755 153.26666
-6.604053 -12.122477 2.2357945 105.25
-6.1296363 -12.207736 2.2269986 124.33334
1.3221711 -12.345557 2.383074 53
1.6750077 -12.214713 2.3866501 57.666668
2.0832298 -12.008993 2.3829305 52
9.8518114 -12.265181 2.1012919 110
-8.6181164 -11.720322 2.0903435 149
-8.2636347 -11.731728 2.2433183 100
-7.7789116 -11.895945 2.209372 118.76666
-7.3836079 -11.970757 2.2529855 136
-7.0912209 -11.666857 2.2848334 34.5
-6.7390275 -11.725397 2.2852032 45.5
-6.3172045 -11.814131 2.2908525 41
-5.8896456 -11.876648 2.2936032 45
0.13966057 -11.939614 2.3397741 63.666668
0.57667673 -11.859733 2.3469276 60.666668
0.93583965 -11.772674 2.3505466 70.5
1.2859137 -11.621897 2.3429942 58.666668
2.5111759 -11.769496 2.3775129 85.75
10.462112 -11.896173 2.0429676 49
-8.678606 -11.417272 2.2971208 40.333332
-7.4318509 -11.578662 2.280278 30
-5.8265858 -11.21941 2.2806704 39.5
0.14744498 -11.342547 2.295815 82
0.42537606 -11.295346 2.3031168 61.666668
1.6975307 -11.452764 2.3380346 68.666664
2.1034925 -11.308665 2.3401995 76.666664
2.6727092 -11.28307 2.2350874 146.5
6.231595 -11.227682 2.2756608 109.75
0.7657482 -11.160434 2.2981284 67.5
0.96784967 -11.093592 2.2986383 70
1.2321151 -10.98509 2.2962244 62
1.6283388 -10.867141 2.3034048 80.666664
2.6442535 -10.985015 2.2893205 115.19445
4.2788358 -10.830551 2.1273012 160
4.6885581 -10.920217 2.1594026 170.27777
5.0471663 -11.006205 2.1773088 161.08333
5.4265504 -11.078244 2.1551027 143
5.7931557 -11.1434 2.1977398 96.5
6.3914833 -11.155435 2.2560291 108.5
6.6069388 -11.035811 2.2884634 131.66667
6.8603683 -11.079535 2.372988 133
-8.0697994 -10.430919 2.2369986 38
-7.7697206 -10.591722 2.2485127 42
-7.3501735 -10.727523 2.2515686 29.666666
0.63112038 -10.445382 2.382942 247
1.0101472 -10.612942 2.2837508 103.75
1.4721661 -10.63491 2.3244579 188
1.8180001 -10.692868 2.3655641 171.5
2.0941284 -10.770831 2.3233383 171.5
2.7913592 -10.772434 2.2213457 150
2.828558 -10.577136 2.2005711 131.33333
3.5315502 -10.489179 2.2496064 155
3.8339553 -10.735126 2.1444707 201.43333
4.1009655 -10.774811 2.2964649 185
0.22596614 -10.363989 2.3395905 219.75
2.9892604 -10.26999 2.1612771 196
3.2891099 -10.283164 2.1946521 235.8889
-17.424026 -9.7745705 2.0574551 60
-17.002239 -9.9469099 2.0582201 20
-5.7406983 -9.7166977 2.2531557 67.222221
-5.3803577 -9.7577562 2.2747238 62
-5.030159 -9.8654699 2.2816136 68
-6.5623183 -9.3371649 2.2463386 55.75
-6.1777492 -9.5286379 2.2503476 65.25
-5.8901834 -9.5848942 2.2660398 87.666664
-4.8606653 -9.2148838 2.2996044 223.5
-4.591938 -9.2778444 2.3154483 189.25
-0.86249876 -9.2200527 2.1342742 47.375
-0.60752565 -9.2733097 2.2264872 36.849998
-0.27882794 -9.3646765 2.1959057 67.722221
-6.9892912 -9.1066456 2.2151315 54.5
-6.6525483 -8.8315792 2.3528323 168.75
-6.2217755 -8.9192581 2.3385108 186.1111
-5.8518467 -8.9947453 2.3285048 185.33334
-5.3974037 -9.0988731 2.3263624 208.97916
-5.0621276 -9.1656046 2.3074491 214.22223
-2.5857344 -8.8214874 2.2375946 37.916664
-2.2239642 -8.9055233 2.1535442 45.900002
-1.8211963 -8.9986763 2.1770413 48.8125
-1.3604547 -9.1050205 2.195055 47.595242
-1.0069197 -9.1827936 2.1840198 36.458332
-7.0331635 -8.6746569 2.3499868 147.58333
-4.0286398 -8.6630602 2.1240115 90
-3.7548864 -8.6000566 2.2472112 35.666668
-3.3523867 -8.6577778 2.1780515 28.797621
-2.9983087 -8.7314959 2.2274368 34.133331
-2.747561 -8.7937622 2.3896034 37.333332
9.0073338 -8.6375103 2.1978908 25.75
-8.1866989 -8.0403595 2.2749305 162.8889
-7.095304 -8.156846 2.2978888 139.33333
-13.794026 -7.7074275 2.1703873 21.5
-12.317898 -7.6273427 2.2542686 54
-9.8091631 -7.6843338 2.12937 121.5
-9.399436 -7.7956238 2.1140926 139.33333
-8.8397684 -7.8832698 2.3213716 150
-8.6066036 -7.9547043 2.320869 133.89999
-7.620193 -7.8869095 2.264792 107
-7.3895569 -7.8960276 2.2074666 185.60001
-14.348418 -7.3539529 2.1465349 86.75
-13.829762 -7.3415656 2.2296383 49.5
-13.430399 -7.346797 2.3124359 83
-13.026681 -7.432385 2.2880993 69.5
-12.623524 -7.5063615 2.2628233 24
-10.615061 -7.2843895 2.3005667 139.5
-14.258946 -6.9977736 2.1710451 105.2
-11.007112 -7.1472015 2.3093879 140
7.6454144 -6.8987236 2.386898 21
-14.199387 -6.6165237 2.1242347 109
-10.686181 -6.5611062 2.3692594 47.5
-14.105794 -6.2320638 2.1651776 118
-10.979022 -6.1737518 2.3388052 45.958332
-10.483503 -6.0337849 2.3166232 26
-14.068061 -5.8963408 2.1119187 112
-13.97188 -5.7010465 2.3543363 126.5
-11.3245 -5.7484012 2.3230047 51.777782
-11.029059 -5.9687405 2.3221757 49
-10.727797 -5.7297935 2.3102992 44.5
-10.322232 -5.7973061 2.3792999 78.5
7.8383474 -5.8143497 2.3472474 32
8.1375866 -5.9142575 2.3407741 14
11.928961 -5.7444186 2.396589 35.5
-13.898293 -5.4037447 2.1717589 160
-11.687445 -5.3966169 2.2686362 47.375
-11.542301 -5.437429 2.3127072 56.944443
-10.974943 -5.4212604 2.3063865 46.333332
-10.653149 -5.3874898 2.3664975 60.25
-10.228731 -5.4744883 2.3120818 132
7.8679686 -5.4520988 2.3606482 38.583336
11.692872 -5.2151446 2.3615174 38
12.062958 -5.3555703 2.3857801 36.666668
-13.811614 -5.0166597 2.0762835 119.625
-12.235174 -4.8386202 2.2416954 48
-11.837329 -4.9697952 2.2949576 46.900002
-11.032428 -5.0414004 2.3319561 59.166668
-10.253024 -4.9494877 2.3149121 55.25
7.9767756 -4.9385934 2.3612006 18
11.739815 -4.9716225 2.3479228 35
12.162221 -5.0426197 2.3766303 36
-13.70916 -4.551084 2.1496119 152.25
-12.089835 -4.577867 2.2911098 54.125
-11.965068 -4.7623916 2.1978457 41.666668
-11.317132 -4.5414205 2.3292637 49.25
-10.548781 -4.6315336 2.287545 58
-10.316101 -4.7254076 2.3560238 79
8.1328506 -4.7525835 2.363766 19.5
10.464512 -4.7474895 2.3949094 55
11.319397 -4.5562739 2.2579119 25.333334
-13.607775 -4.1265674 2.0764627 128
-12.485919 -4.0037141 2.2948308 47.5
-12.268781 -4.2106442 2.275193 50.333332
-11.548045 -4.2392626 2.3195517 40
-10.761449 -4.2628107 2.2852545 58.166668
-9.9067459 -4.1266627 2.3936167 159
8.0147257 -4.1391807 2.3993065 220
10.213849 -4.1278939 2.397181 189.25
10.746758 -4.3709679 2.3862345 46.333332
10.903226 -4.1037765 2.3744426 39
11.308333 -4.2543454 2.1544662 124.59258
18.338203 -4.104701 2.3895934 9
-12.537845 -3.7385592 2.2635922 44.75
-12.395633 -3.8276052 2.2510676 45.75
-11.790012 -3.8546875 2.3032808 46.5
-11.244417 -3.6794257 2.3131437 66
-11.029535 -3.8720529 2.2718565 54.125
-9.8579111 -3.8994825 2.372905 132.22223
8.0882568 -3.8323641 2.3815644 238.41667
10.302882 -3.7952869 2.3861973 212.55556
11.027333 -3.9839237 2.3777432 64
11.385418 -3.7921512 2.1584227 186.42499
16.016893 -3.7810059 2.1036491 64.333336
17.750307 -3.7728238 2.3926511 22.5
18.382942 -3.6860893 2.3541 26
18.43615 -3.6513703 2.3795328 17
-15.157321 -3.2040162 2.1284359 35
-14.616343 -3.3527031 2.0851569 28
-14.119258 -3.495821 2.0469193 25
-12.822443 -3.2356937 2.2712734 51.666668
-12.614734 -3.3934689 2.2350521 47
-12.03476 -3.4633808 2.2896845 50
-11.975784 -3.4635551 2.2495489 17
-11.45704 -3.3917742 2.300678 60
-11.161034 -3.4948454 2.2122905 49.666668
-9.7677479 -3.4799325 2.3262043 189.22223
8.1817694 -3.4063513 2.3451135 238.52779
10.290367 -3.4101636 2.3480849 104.66666
11.489062 -3.394917 2.1428289 195.00002
13.579975 -3.2095945 2.3563719 36
17.46965 -3.4006042 2.3867903 20
18.486691 -3.2655869 2.3550291 17.75
19.405815 -3.3802419 2.3778319 67
19.603584 -3.4945734 2.3947651 25
-12.917816 -2.9670086 2.2262852 48.75
-12.658038 -3.0245221 2.2297385 52
-12.218991 -3.0860465 2.271893 54.5
-11.742323 -2.9743254 2.2824192 56.666664
-11.325286 -3.0673668 2.1957166 52
-9.7136898 -3.0642025 2.2757878 150.25
-9.5845633 -2.8388953 2.3331602 165.66667
8.2919197 -3.0019636 2.3168564 172.52083
8.4237175 -2.8428442 2.3165278 107
9.0510082 -2.9447622 2.2901292 72
9.5152454 -3.0003579 2.3115842 53.166664
9.7531109 -3.0601778 2.3207192 75.5
10.32115 -3.0208805 2.319942 67.666664
10.42704 -2.8097827 2.3186922 60.333332
11.564068 -3.0775337 2.1456101 213.43752
11.612853 -2.9087725 2.1204488 211.5
12.747765 -2.9294806 2.3257139 40
12.946802 -2.9357102 2.3411946 48.5
13.596771 -2.937417 2.3369427 39.666668
13.657092 -2.8917835 2.3472493 45.666668
17.665564 -2.9699595 2.3631017 25
18.591654 -2.9244585 2.3501577 17.5
-13.054661 -2.5654984 2.229701 47.666668
-12.552457 -2.6655998 2.2436409 44
-12.117767 -2.4184453 2.2638979 61
-11.984558 -2.6053033 2.2680187 67
-11.500534 -2.7163405 2.191016 67
-10.022201 -2.5460761 2.2450049 107
-9.784605 -2.5914176 2.2187595 97.999992
-9.538168 -2.5203209 2.3038068 184.33334
8.3502331 -2.6870127 2.3018293 205
8.5171137 -2.5539572 2.3039145 71.138893
9.1377239 -2.6496277 2.2798572 88.5
9.3969936 -2.4819922 2.293015 85.166672
9.7472973 -2.5432997 2.2947934 74.55555
10.388255 -2.4976802 2.2970641 71.333336
10.496196 -2.4412386 2.3018849 69
11.735029 -2.6443365 2.3214958 29
12.328767 -2.7449183 2.3015561 42
12.60758 -2.5371809 2.2929716 40.5
12.955257 -2.643944 2.3272009 38.583336
13.47823 -2.6943932 2.3337712 43.5
13.702533 -2.50963 2.3302178 36.25
17.835804 -2.6461694 2.3482397 20
18.046108 -2.439594 2.3500695 18
18.656887 -2.5770273 2.3408451 14.25
19.081001 -2.6452496 2.3843677 17
19.773712 -2.5490849 2.3752804 21
-16.496674 -2.1276865 2.0269687 17
-13.208302 -2.3006806 2.2537012 126.5
-13.033804 -2.1245172 2.1584799 48.333332
-12.636481 -2.2059143 2.2398918 48.666668
-12.315658 -2.0953677 2.2532923 47.333332
-11.645395 -2.1972113 2.1707597 47.166664
-10.117079 -2.268455 2.2368824 94.25
-9.7547722 -2.1825662 2.2042742 70.416664
-9.5380449 -2.2311723 2.3111641 177.22221
8.5409451 -2.1960075 2.2903204 184.0625
8.8289165 -2.0162251 2.287375 61.5
9.3094139 -2.0934916 2.2629328 81.041672
9.6403666 -2.2290974 2.2786984 80.666672
10.504883 -2.1309838 2.2873755 64
11.887612 -2.2710423 2.3023589 32.333332
12.388276 -2.3182969 2.3024228 44.5
12.50264 -2.1212168 2.2831342 45.5
12.967164 -2.2286284 2.3127129 38
13.480677 -2.1882968 2.3167543 38
13.714656 -2.1299968 2.3116252 42.833332
18.651564 -2.1607583 2.3390601 9
19.183577 -2.1933997 2.3499346 21
19.805481 -2.192426 2.3686094 24
-17.166401 -1.7388541 2.0391283 17.5
-16.580412 -1.9363092 2.0199966 16
-13.03794 -1.7840209 2.2019691 81.5
-12.580668 -1.7456311 2.2163651 44.416668
-12.383327 -1.9329746 2.1919632 44
-10.234694 -1.8737415 2.2252855 84.5
-9.7817612 -1.7857546 2.2037673 73.900002
-9.3964462 -1.8060679 2.3114071 204.16667
8.6031399 -1.7845864 2.2812805 208.33333
8.9570179 -1.7000425 2.2743258 61.75
9.4113522 -1.6739756 2.2494051 89.541672
9.7714224 -1.887885 2.2730768 82.69445
10.240602 -1.8553531 2.2781026 65
10.486137 -1.8102846 2.2732308 71.5
12.07453 -1.8977606 2.2899683 29.5
12.631771 -1.7525613 2.2620738 48.5
13.005641 -1.8212777 2.2991712 40.111115
13.523763 -1.7747459 2.3110068 20
13.840828 -1.655826 2.3068066 38.833336
18.693867 -1.6996255 2.3252337 10
19.10111 -1.8150544 2.3590374 17.5
19.821243 -1.7153592 2.3498044 25
-17.353628 -1.2459071 2.0336578 17
-12.992823 -1.4146085 2.1869254 138.75
-12.789802 -1.2116607 2.2241695 55
-10.345482 -1.3553016 2.2075055 77.25
-9.8564119 -1.4542912 2.2267125 86.583336
-9.3113432 -1.3412304 2.2276528 156.94444
8.6405544 -1.4929441 2.315346 219.0625
9.0728683 -1.377077 2.259737 74
9.4751015 -1.3398404 2.2373676 90.666672
9.8298607 -1.4775108 2.2622051 81.44445
10.24011 -1.3797549 2.2601323 70.75
10.648337 -1.4256203 2.2665322 71.625
12.221817 -1.5928744 2.2800531 38.5
12.559801 -1.275825 2.2605796 48
13.070303 -1.4042206 2.2893691 34.625
13.475496 -1.5202444 2.2957664 44.5
13.886989 -1.2880843 2.2961555 42.666664
17.933434 -1.234411 2.1087689 24
18.735094 -1.3544736 2.316488 15
19.132471 -1.4615684 2.3516152 14
19.803143 -1.5881429 2.3419905 24
-12.900256 -0.94242185 2.1608627 189.88887
-12.542174 -0.90759057 2.1625361 44
-10.431032 -0.97762477 2.2003701 82.75
-10.033236 -0.94929898 2.2059419 73
-9.931222 -1.1592741 2.201309 68.75
-9.4311037 -0.94638795 2.1746874 79.5
-9.1780891 -0.85765088 2.3686533 210.33333
8.7377367 -1.0126034 2.3094814 216.16666
9.3561935 -0.99253058 2.2344046 82.333328
9.8295918 -1.0165414 2.243691 82.541664
10.24375 -0.97098327 2.2479737 81.5
10.668053 -0.954 2.2501249 78.333328
12.691099 -0.87321663 2.2505999 38
13.05812 -1.0063006 2.2721589 40.333332
13.445614 -1.0636305 2.2792125 47
13.835703 -1.1296195 2.2888465 36
14.024511 -0.8752898 2.2900867 47.5
17.849537 -1.1261005 2.1688344 23.4
-12.84117 -0.60864586 2.1189055 191.55556
-12.663802 -0.56279087 2.1307123 101.25
-10.502354 -0.53564596 2.1910324 89.75
-10.146262 -0.61907035 2.194947 83.111115
-9.0988922 -0.49677211 2.3258555 266.75
8.8196096 -0.62258989 2.301259 189.06667
9.4327059 -0.62284422 2.2209063 77.5
9.8135433 -0.58807909 2.2300529 74.800003
10.204694 -0.59466362 2.2301707 66.25
10.677713 -0.5793004 2.2337854 84.041672
12.738314 -0.48126698 2.2480009 35.5
12.970704 -0.55837315 2.2497313 39.833332
13.433079 -0.61147469 2.2673063 39
13.81113 -0.79660547 2.2718246 40.666668
14.048875 -0.46492839 2.2745388 52
18.765413 -0.5446021 2.289772 12
-12.737414 -0.21731861 2.0793695 199.33333
-12.159534 -0.21374129 2.1300862 11
-10.490167 -0.17927162 2.1718292 83.5
-10.225924 -0.2320635 2.1771395 77
-9.0066881 -0.15509889 2.3403771 236.64999
8.8657303 -0.32879713 2.2584321 247.425
9.5372648 -0.19541876 2.2054889 73.111115
9.8870726 -0.17464058 2.2177432 83.222221
10.171759 -0.1287936 2.2143781 79
10.588061 -0.37085715 2.2257695 76.666664
12.990487 -0.14404559 2.2361598 42.666668
13.308706 -0.20245394 2.2389789 43.5
13.880524 -0.38515222 2.2686486 39
14.067376 -0.053794786 2.2593524 42.5
18.861423 -0.069032893 2.2691839 13.25
19.248844 -0.21707411 2.305464 8.5
19.728909 -0.3912195 2.2920825 6
-12.629774 0.23532006 2.0444384 201.58334
-10.44181 0.34030271 2.1647921 65.5
-10.264008 0.15072711 2.1604903 76.333336
-8.8962736 0.23447566 2.3205492 241.83333
8.9784451 0.17408383 2.2697997 299.8125
9.592597 0.19421706 2.1985683 68.333336
9.8852577 0.19514912 2.2066152 81.645828
10.123168 0.27173835 2.1992838 91.75
10.605132 0.067664251 2.2153063 90.5
10.862385 0.21152431 2.2206542 104.83334
13.016326 0.24471185 2.2217126 42.476192
13.270893 0.16176151 2.2272635 41.25
13.868996 0.028856695 2.2534785 43.333332
14.050549 0.27477574 2.2430227 57
18.892723 0.26697299 2.2767928 17
-12.530722 0.62564814 2.0527561 195.5
-10.477101 0.57733303 2.1534395 79.5
-10.21751 0.51878208 2.1748779 67.666672
-8.8303156 0.56832343 2.2847412 235.58333
9.0739889 0.61081678 2.2840655 279
9.8127632 0.59448344 2.1921577 83.166664
10.065492 0.69997674 2.1846333 88.666664
10.616855 0.50788081 2.2066822 78.333336
10.878282 0.77778846 2.2045581 104.66666
13.076804 0.67122233 2.2080648 42.738098
13.803721 0.56398547 2.2276468 55.25
14.076117 0.68838429 2.2316785 53.333332
-10.517467 0.93673939 2.1364241 77
-10.189968 0.82875621 2.2026231 71.666664
-8.7483711 0.94137359 2.2478604 257
9.1293364 0.88288683 2.2947512 283.08331
9.2018738 1.1399562 2.3475175 231.5
9.8191652 1.0029968 2.1805565 79.791672
10.007657 1.127116 2.1730852 88.25
10.592755 0.88445175 2.1945071 76
10.883996 1.1583936 2.1957762 94.666664
13.062302 1.0543292 2.199743 42.666668
13.313898 1.0634543 2.1983492 28.5
13.791791 0.93542433 2.2167325 48.5
14.171041 1.1102076 2.2330253 30.5
18.989935 0.89214557 2.2710717 14
-12.330716 1.4480004 2.0930016 126.16666
-10.590625 1.4070568 2.1236076 96
-9.0964975 1.2150068 2.1501493 62.666668
-8.6881104 1.378619 2.1329451 186.66666
9.352356 1.4113313 2.2629092 193.16667
9.8184862 1.4017426 2.1653926 74.5
10.534733 1.2570965 2.1773992 74.333336
10.891563 1.5431523 2.1896398 66.666664
13.064905 1.4034089 2.184983 45.047619
13.41524 1.423298 2.1842642 38
13.806173 1.2688023 2.2121966 40.5
14.163845 1.5282981 2.2190282 51
-12.170825 1.8010622 2.0986788 54.5
-10.625731 1.8927897 2.1072621 67.75
-9.0551357 1.6378242 2.1385319 70
-8.6648655 1.847049 2.1125894 98.5
9.3919144 1.7946377 2.2849183 185.75
9.8410101 1.8498601 2.1474211 76.472221
10.485361 1.6948678 2.164434 99
10.870564 1.9268774 2.179704 73.333336
13.034957 1.8410714 2.1664822 44.785713
13.513268 1.7895867 2.1701024 35
13.741091 1.6776851 2.1942725 43
14.159363 1.94903 2.2068048 36.5
-8.5309772 2.2509167 2.0999513 191.75
9.4642735 2.1965551 2.2268705 156.83333
9.8207607 2.2560706 2.1319599 64
10.006885 2.1237514 2.1436412 71.333336
10.411468 2.1290748 2.1492708 84.666664
10.812905 2.3720734 2.1640787 65.75
12.966907 2.2452083 2.1528924 39.972221
13.582336 2.158102 2.152168 26.5
13.685055 2.2131753 2.1778541 43.25
14.144997 2.2864184 2.1963377 37.5
-12.098129 2.5901504 2.1211076 91.75
-10.578712 2.5391879 2.0750566 84.25
-8.4044628 2.6144266 2.1097279 239.5
-8.3573141 2.7191823 2.1507885 203
9.5483742 2.6183996 2.1882682 163.47917
9.6102257 2.5709243 2.1254067 112.91666
10.367468 2.5083747 2.1430686 93.666664
10.761926 2.6893938 2.1525848 69
12.762777 2.7404945 2.1468601 34.666664
13.00363 2.5786824 2.1523647 44.833336
13.346016 2.6574492 2.0871768 115.5
14.115011 2.5369895 2.185962 32
-9.978323 3.0178077 2.0041316 69.666664
-8.3210201 2.9697886 2.1329598 246.58334
9.5709066 2.827255 2.1450391 227
9.6432695 3.051405 2.1485245 113.33334
10.137287 3.0742593 2.1168056 47
12.684544 3.1375694 2.1362152 34.25
13.03427 2.9428842 2.1221745 78.833336
13.232996 3.0859618 2.064363 204
-9.9662685 3.3844104 2.0386908 63.333332
-8.234107 3.378227 2.151485 259.66669
9.7931271 3.3546033 2.0518503 120
10.097938 3.2804832 2.0987754 107
12.596676 3.4059429 2.1242979 31
12.880873 3.2961671 2.1235771 33
13.303817 3.4365866 2.0674956 129.66667
-9.8507805 3.7411075 2.0253165 56.333332
-8.169239 3.6561284 2.153275 97
9.7250643 3.7977445 2.1243751 183.5
6.1952815 4.2548647 2.2947705 251.68588
6.4684343 4.1356487 2.3027215 264.39999
9.8023052 4.2052622 2.1208327 187.13637
-8.1007767 4.540216 2.0234113 96
6.1956863 4.5809398 2.2076375 250.7
8.586771 4.7157326 2.2999678 59.833336
9.85077 4.4164486 2.2136757 134
10.216549 4.68929 2.2351997 12.875
-7.8938732 4.999126 2.0139971 145.66667
2.7142916 5.0045319 2.1925628 285.16251
3.0507555 4.8857279 2.1752343 298.04166
6.2925901 5.0076184 2.1680148 187.29489
8.5592518 4.9263964 2.1987622 79.214287
9.9901714 5.1865602 2.0751235 16.166666
10.063335 4.9585285 2.1851382 12.961538
-7.8220205 5.2076559 2.017339 181
2.7255452 5.413229 2.1970673 119
5.0280838 5.5031476 2.2082744 125.57143
6.5705714 5.4779358 2.2399187 20
9.9858913 5.2977209 2.191632 15.366666
10.042327 5.3455796 2.3220825 16.375
-0.60142511 5.7133636 2.1720252 309.89835
-0.2659722 5.8807554 2.1682367 159.60001
2.7936766 5.7641482 2.1408365 118.33334
2.8273764 5.8984504 2.2279303 63.666668
5.0498567 5.6983795 2.1948841 66.888885
6.5553603 5.7510324 2.1851075 14.111112
-0.14647302 6.2707725 2.2485638 105.35
1.516229 6.2658529 2.2017968 175.28572
6.5557375 6.2032185 2.2239757 12.716666
-4.1996498 6.5086975 2.2793379 161.25
-3.7523718 6.6450644 2.1739969 170.75
-0.09669818 6.5282984 2.2507145 70.75
3.0170579 6.4816365 2.1365271 20.75
6.5971928 6.4591327 2.2745519 11
-3.6237826 7.0412965 2.2655413 121.5
-1.9134513 7.1394362 2.1602194 104.25
-0.026508745 7.1121268 2.1532791 27
3.1198275 7.1316948 2.189688 15
-3.6485903 7.5582314 2.0366426 66
-1.9062915 7.4423528 2.2018142 19
0.061082084 7.361618 2.2495477 11.666667
-5.4683962 7.860332 2.2475951 112
-3.6002476 7.8331027 2.0955546 11
-3.3787622 8.2764511 2.089102 13
-3.2835143 8.510519 2.1378145 9
11.703197 12.661523 2.1776502 10
-5.5713978 15.789979 2.0185769 7
2.3840063 -14.082647 2.4060221 80
0.31897926 -13.668486 2.4157267 153
0.64340883 -13.567238 2.4166186 58.5
0.96059865 -13.414473 2.4092596 47.5
1.3496999 -13.245918 2.4054813 47.333332
2.1043956 -12.905034 2.4015613 44
0.53156728 -12.742737 2.4014032 51
7.527833 -11.707186 2.4976373 91.5
7.9206238 -11.789685 2.5147071 81
8.3388042 -11.908969 2.579484 80
8.7858534 -11.899379 2.6315188 47
6.1909046 -11.248483 2.5622983 158
7.844151 -11.436163 2.5367265 46.25
2.6863964 -10.855719 2.6197393 151.33334
4.619833 -10.87865 2.6374633 150.33333
5.0188656 -10.957002 2.716717 138
5.4674001 -11.072825 2.673336 143.5
5.8029518 -11.168316 2.4980922 164.5
8.2593193 -10.994711 2.5268934 35.333332
0.59569794 -10.427363 2.589998 191.97223
1.0507195 -10.520584 2.6339347 185.30002
1.4339558 -10.595795 2.6399403 191.33334
1.7960343 -10.674446 2.6394448 153.55556
2.1792912 -10.755287 2.5970798 164.60001
2.6875708 -10.787247 2.6376059 146.5
2.8364644 -10.495818 2.571425 117.75
3.5321596 -10.405311 2.50402 89
3.7790039 -10.691076 2.6202593 177.7
4.2150965 -10.789256 2.6148949 134.54167
6.6150098 -10.402555 2.7952423 109.5
8.4695826 -10.716166 2.5157776 43
-0.056989115 -10.282763 2.5680161 66.5
0.16442104 -10.346128 2.5243096 199.23334
3.0099442 -10.266112 2.5457811 174.83333
3.343271 -10.290635 2.6269948 185.25
6.7075667 -10.021767 2.7425976 114
6.7676501 -9.7078266 2.7376673 122.25
-4.6087227 -9.252327 2.6264718 131.48334
-0.82047266 -9.2123585 2.4985824 31
-0.56522089 -9.255641 2.6558459 30.616665
-0.26943183 -9.3246756 2.6522987 27.666666
6.8463144 -9.3996086 2.6965733 119.5
-6.5057955 -8.8345881 2.5870435 145
-6.1688881 -8.910038 2.592258 145.2
-5.7677541 -8.992485 2.6080303 168.97917
-5.3347039 -9.0781698 2.507349 190.66667
-5.0345492 -9.1432085 2.6226871 183.375
-2.5998557 -8.8163767 2.5928001 35.361111
-2.231447 -8.889185 2.5948589 33.5
-1.8289015 -8.9811153 2.5851593 37.976192
-1.4042535 -9.0752716 2.6159353 35.583332
-1.0480211 -9.1520224 2.6401362 36.700001
6.9697485 -8.9635715 2.6804829 62.75
-7.0283303 -8.654851 2.6182847 128.2
-6.798636 -8.7643595 2.7200408 136
-3.7415082 -8.5670233 2.5589993 31.055557
-3.3980904 -8.6415873 2.5726478 29.130951
-2.9968123 -8.7237892 2.6131275 26.229166
-2.7009246 -8.7808113 2.632637 29.583332
18.140295 -8.7517443 2.5831089 39
-8.1291351 -8.0248432 2.6361921 173.16667
-7.8946414 -8.0511341 2.4441402 116
-7.0847096 -8.1893301 2.6922293 107.75
7.3819327 -8.169733 2.4559357 18
17.396084 -8.1098299 2.5017855 9.5
-10.026535 -7.6497669 2.5348666 124.25
-9.7558289 -7.6898603 2.5514879 113
-9.4107552 -7.7872024 2.5562479 113.5
-9.143959 -7.877358 2.5385292 78
-8.5412064 -7.9322882 2.6975152 157.54167
-7.6674905 -7.8946309 2.746057 128
-7.3896861 -7.8740745 2.6365511 201.77779
-7.1086349 -7.9713359 2.732254 195.94444
9.403306 -7.7572813 2.7296958 20.5
17.578362 -7.6722364 2.4958007 14
-12.38063 -7.2800007 2.4614658 28
-11.926504 -7.4801636 2.455687 50
-10.532806 -7.3967514 2.5429442 102.83334
-10.318445 -7.573307 2.5441992 119.16666
9.5368061 -7.3001485 2.7869341 24
16.015417 -7.5623069 2.5226188 23
17.310074 -7.3070955 2.4590557 20
-12.814768 -6.853919 2.4276378 46
-10.575004 -7.0402584 2.5296552 94.75
7.335103 -7.0877471 2.7723153 160
9.5657196 -7.0616241 2.769155 22
12.269436 -6.8367519 2.4609804 43.5
14.718294 -6.8887434 2.4860804 22.5
-13.124525 -6.6362772 2.4207783 44
-10.479624 -6.674243 2.5662801 112
7.40938 -6.738028 2.7180419 162.66667
9.6850395 -6.6143456 2.7343886 146.5
12.514542 -6.617414 2.4525855 43.25
15.078419 -6.4717164 2.4740534 19
-13.848372 -6.1249032 2.4094567 48
-13.524688 -6.3568125 2.4142766 37.333332
-10.420959 -6.2406478 2.6035981 105
-10.360186 -6.2732892 2.5766611 112.75
7.5285277 -6.2670364 2.6941867 123.36666
7.6047325 -6.0789266 2.4731011 14
9.7309742 -6.325707 2.7739904 28.5
11.805003 -6.0494332 2.4031622 36
12.601753 -6.1748261 2.4418709 42.611111
15.220236 -6.3007894 2.4688222 25
-10.28862 -5.8359323 2.6212645 116.3
7.5941353 -5.9745092 2.6473122 141.33334
7.6500778 -5.7566361 2.6216154 142.33334
9.8215456 -5.955411 2.7450044 118.66666
12.695253 -5.7375851 2.438072 31.666668
12.930317 -5.8041821 2.4265628 34
-10.200887 -5.4166455 2.6165409 130.16667
7.7299757 -5.3885827 2.6193907 178.43333
9.9442692 -5.3809705 2.5741143 182.93333
11.109337 -5.4562688 2.4148953 43.833336
12.249617 -5.5449791 2.4289696 33.666668
12.663079 -5.3328118 2.4234848 29.5
12.941869 -5.4180593 2.4298394 20
-10.102529 -4.9667683 2.6459308 131.66666
7.8251305 -4.9544706 2.5904052 188.1111
9.9925966 -5.1936946 2.6156888 165
10.083434 -4.9675689 2.5381193 133.44444
11.377264 -4.9766326 2.4022062 39
12.320849 -5.1235285 2.4060621 47.5
-10.039201 -4.6561475 2.5820518 150.25
-9.9752369 -4.4472904 2.6059651 134
7.8947048 -4.6329503 2.5931954 185.02777
10.119816 -4.596067 2.5532997 188.91666
19.602438 -4.4492774 2.4706213 62
-9.9381065 -4.2616181 2.5591846 147.5625
7.9772348 -4.2904439 2.5336425 213.67709
