# .PCD v0.7 - Point Cloud Data file format
VERSION 0.7
FIELDS x y z intensity
SIZE 4 4 4 4
TYPE F F F F
COUNT 1 1 1 1
WIDTH 236
HEIGHT 1
VIEWPOINT 0 0 0 1 0 0 0
POINTS 236
DATA ascii
2.4029756 -1.9380697 -1.0415797 14
3.2819316 -2.5526617 -0.96907985 9
-2.0341849 -1.8377049 -0.87715489 89
0.17546238 -1.9577874 -0.82856107 20
0.24184281 -1.4886987 -0.90821791 32
0.16179697 -1.2327423 -0.92729467 88
0.28154141 -1.0745126 -0.81570029 26
0.93223095 -1.1021572 -0.92835015 23
1.2656546 -0.12387335 -0.93706864 21
1.5242883 -0.087699302 -0.95346558 50.5
1.1770289 1.0346987 -0.87165654 50
1.3874745 1.0739292 -0.87023973 40
2.802882 1.7755289 -0.93109095 27
4.5733733 2.8691311 -0.98055047 57
1.9611489 -2.4461975 -0.75663912 54
-0.79218179 -2.3356757 -0.66084129 32
-5.0235248 -2.1419702 -0.61863762 234
0.17640209 -2.0205693 -0.74065959 37
-0.049940258 -1.676084 -0.68189085 49
-2.8898387 -1.4420618 -0.67916298 134
-1.6004027 -1.410495 -0.79114664 7
-0.46946576 -1.4701858 -0.74575084 46
0.0034778845 -1.0019659 -0.74098682 29
0.74036944 -1.0588512 -0.7414785 25
-3.3085511 -0.81169748 -0.69224441 264
-2.8109124 0.72767359 -0.66750169 27
-2.4391377 0.6355086 -0.70500362 43
-3.465086 0.84552073 -0.64877087 107
-2.1772511 2.2626283 -0.63841277 12
-3.1717756 2.5048373 -0.65461099 89
-1.1773527 2.5297287 -0.66432226 18
-1.9008545 3.0412138 -0.70097929 84
-0.031494968 3.0758557 -0.69360858 49
0.45186707 3.0408459 -0.68325561 65
0.88399327 3.0633276 -0.70452917 179
1.4866383 3.0721486 -0.75390536 168
2.3567417 3.3761184 -0.71076298 80
4.5908246 3.7142909 -0.76205027 21
3.4572606 3.8461976 -0.64901394 74
2.9012637 -3.1528938 -0.59827936 10
1.9446414 -2.4405701 -0.59238762 55
0.17995748 -2.0064447 -0.57057488 53
-0.60490316 -1.9319782 -0.42914215 30
-0.46264762 -1.6765406 -0.59308636 57
-1.5872167 -1.5841373 -0.47580266 52
0.85343295 -1.4451102 -0.57587522 10
-1.0845263 -1.3552542 -0.45137674 43
1.0805994 -1.3315448 -0.57706976 10
-1.7683773 -1.1436599 -0.43501911 58
-1.2030847 -1.1708226 -0.43226242 40
0.21856527 -1.1302359 -0.52985048 12
0.63491923 -1.0312563 -0.54061043 30
0.31742927 -0.89825708 -0.51491511 12
0.51418251 -0.86682886 -0.53625238 22.5
-5.257647 -0.24458256 -0.52097702 273
0.8438499 0.29901573 -0.45779601 201.5
-2.9757841 0.42239985 -0.55441052 106
-5.4134712 1.0233192 -0.48952031 172
-0.21625228 1.120769 -0.42009178 16
-0.13274916 1.0812324 -0.50524998 23
0.072515629 1.1585724 -0.45202303 7.5
-3.0600262 2.2311473 -0.42854273 55
-1.1604892 2.4091415 -0.49954328 29
-0.47586641 2.7987611 -0.57680249 13
-0.83093268 3.0363762 -0.41539407 127
-0.79180384 3.0504529 -0.57346058 116
0.11989512 3.1448123 -0.54706538 77
0.49135804 3.0499642 -0.52924752 65
0.87534761 3.0290918 -0.53613317 206
1.5673095 3.1347589 -0.59727001 124
2.345536 3.3527806 -0.50026172 189
2.175952 3.8633795 -0.54378843 172
1.9651279 -2.4329855 -0.28176007 16
-4.9565716 -2.1919131 -0.34989345 55
-0.64709818 -1.967458 -0.23354551 18
-0.50394779 -1.9321651 -0.32077718 15
-0.30121356 -1.9106197 -0.30692604 26
-0.082357839 -1.8157831 -0.28231555 11
0.16868712 -1.8601602 -0.285137 13
0.14199834 -1.7708627 -0.35923529 29
-1.1512053 -1.5925337 -0.21960147 96
-1.5852981 -1.363698 -0.3324005 7
-1.8123152 -1.1273718 -0.28008834 113
1.3821523 -1.0642352 -0.20548324 12
-3.6357338 -0.81241667 -0.20335077 17
0.88402712 -0.49958876 -0.30081844 28
1.0180224 -0.51328069 -0.22331582 42
0.92639202 -0.32945862 -0.23034607 84
0.97642696 -0.056904729 -0.24902827 39
-3.0314565 2.0903275 -0.24029869 101
-1.4124314 2.3147845 -0.38127363 5
-1.3405225 2.3154907 -0.24033733 15
-1.0083032 2.4589298 -0.35589239 9
-0.43958661 2.762882 -0.28636086 21
-0.083107799 2.8169885 -0.27824551 14
0.18770587 3.016885 -0.37032673 53
0.22417875 3.0209327 -0.22081178 49
0.48709956 3.0250134 -0.3706395 52
0.86442792 3.0581284 -0.30215257 135
1.25704 3.04774 -0.39434022 131
-1.1805602 3.3226273 -0.30437869 99
2.2504339 3.4740791 -0.30090708 173
2.1222205 3.8708277 -0.32261947 197
3.2072263 3.8319883 -0.37609008 11
2.9042716 -3.1914856 -0.18075526 11
-4.9904957 -2.2149854 -0.086833037 206
-0.75411946 -2.1105716 -0.14695232 9
-0.067776129 -1.8817185 -0.1095483 10
0.12661245 -1.8307574 -0.14536318 11
-1.4280189 -1.7391798 -0.14603026 63
-0.083441757 -1.7794137 -0.1885992 11
-1.5378709 -1.2690929 -0.094857544 109.5
-1.7851673 -1.1298224 -0.071098119 72.5
1.4159609 -1.0966223 -0.1251554 9
1.1098416 -0.47856709 -0.11502149 25.666666
-3.5808966 -0.1721611 -0.16763711 366
1.0458739 -0.067498676 -0.12638849 59.5
3.242873 -0.11662107 -0.002679579 189
-3.6102235 0.31458801 -0.14854744 107
-2.8886843 2.0901182 -0.053982578 105
-0.40665016 2.7437823 -0.011959873 28
-0.068297938 2.7784357 -0.003240481 26.5
0.21876913 2.9642315 -0.071871907 79
0.90151757 2.9769092 -0.0673825 223
-0.79130042 3.0186007 -0.18019527 178
0.52250683 3.0129547 -0.14411597 49
1.3340151 3.0676026 -0.15383697 104.5
2.2405601 3.5475533 -0.10157764 206
3.1805556 3.7920697 -0.13154179 11
2.9217393 -3.226218 0.02860745 10
-4.9767642 -2.2149277 0.18014613 290
-1.6591153 -1.5052866 0.076710239 15
-1.7253096 -1.2491869 0.079354391 59
-3.8466847 -0.62735605 0.17455502 8
-3.7442665 -0.23897377 0.18451792 72
1.1356578 -0.31071809 0.052024648 26.125
3.4673765 -0.1325614 0.1626952 141
-5.4037695 1.0686375 0.050541796 135
-3.0963342 2.0616555 0.11580569 8
-0.50342309 2.6807013 0.18415545 18
-0.0033578449 2.6996903 0.19566505 37
0.18110856 2.9656055 0.07144887 52
0.59077972 2.9758828 0.078949481 43
0.87614441 2.892071 0.082090311 284
1.4037266 2.9708345 0.088585801 81
-0.79330462 3.0067301 0.047014296 221
2.2655799 3.3940051 0.10000297 216
3.8471134 3.6670146 0.10668236 147
3.2046895 3.8127751 0.10954884 24
7.2926979 4.0219593 0.099915162 43
1.9816215 -2.4995067 0.25400287 31.5
1.3983104 -1.1646466 0.22117221 15
3.4964945 -0.14309105 0.33511215 99
-5.386826 0.85124004 0.30820265 304
-3.0519557 2.0783274 0.29809189 61
-1.0087309 2.6891048 0.31653082 14
0.47368485 3.0823822 0.30687112 75
-1.104997 3.3255939 0.21109267 37
2.2779536 3.5018606 0.30499792 197
3.238065 3.7523558 0.34986871 14
3.8168349 3.6312027 0.36262125 89
1.9761502 -2.5099401 0.48817992 30
-4.9731588 -2.2193005 0.44458005 318
1.4179336 -1.1959974 0.45598304 10.5
3.4884014 -0.15217397 0.50501043 160
-5.4572587 0.64853954 0.56858897 96
-3.0268409 2.0531228 0.47390702 107
-1.0275544 2.355104 0.53513259 9
-0.96950096 2.4817147 0.42530805 9
-0.70100778 2.9915028 0.42504174 148
2.3305249 3.3027873 0.49471971 169
2.221185 3.8070991 0.53799975 137
7.5434475 3.9073341 0.50958383 56
1.7986531 -2.5573907 0.78865647 22
1.8871391 -2.534898 0.63857758 17
-4.9652572 -2.2259407 0.71032745 249
3.4847126 -0.16366948 0.76651585 69
-0.80072886 2.9704523 0.65102363 52
2.3183255 3.2795398 0.68981993 175
2.6888509 3.2613664 0.72160357 63
2.2216837 3.8022947 0.75489241 162
2.9498508 -3.1660728 0.8858664 26
-4.8901758 -2.2714605 0.97288764 197
-5.3611574 0.69051468 0.82835412 240
-0.72292662 2.955677 0.80347639 178
-1.4961705 3.1970747 0.90122783 9
-0.10119273 3.4508257 0.92885149 14
1.3979439 3.6286967 0.86441642 27
2.7208459 -2.6095531 1.1815445 10
3.4851165 -0.3071416 1.0349174 196
-5.3400388 0.74347734 1.1021127 129
-4.8951836 -2.2811379 1.2503558 260
3.4977517 -0.31504238 1.2291759 170
-5.4281406 0.47613922 1.3817481 72
2.8310122 -2.5973425 1.4200987 10
-4.8505464 -2.2729836 1.5221685 107
-5.2081404 -0.32098475 1.5654087 258
3.5110145 -0.23670588 1.4342428 33
2.8090718 -1.6395237 1.6302931 77
3.418678 -1.6578643 1.6870906 88
3.491895 -0.50606406 1.6311868 160
-5.2932177 0.51376754 1.6350775 244
-1.4260678 -2.4057362 1.9952252 21
0.049829904 -2.4576812 1.9760381 7
0.8156144 -2.4704962 1.9166507 10
1.2229099 -2.5925624 1.9122174 50
1.7395852 -2.091527 1.8587638 25
1.7785538 -1.6862558 1.887483 26
2.8209498 -1.6096652 1.8386031 14
3.4133034 -1.617041 1.9095322 30
1.9586343 -1.5250129 1.930161 19
2.2526102 -1.5330364 1.9156487 21
2.4627461 -1.5809869 1.8477496 17
3.4892361 -0.47242537 1.8472903 163
-2.6637685 -2.4095149 2.0587566 137
-2.0953257 -2.4170411 2.0489762 54
-0.74638748 -2.4271178 2.0187173 10
-3.9236989 -2.3520672 2.062748 146
7.4743752 3.3511798 2.1234248 46
6.7537394 3.7373028 2.8603103 74
1.7579986 -4.9519615 4.2969398 22
3.0795202 -4.7942076 4.2699494 29
1.7927418 -5.2774816 5.0562043 10
-6.7456951 15.324091 5.0647626 26
-5.1194801 16.360525 5.259192 26
3.2778485 17.913509 5.8202205 17
-7.6911793 15.261622 6.0720439 18
-6.520299 15.751353 6.1108856 16
-3.8535695 16.37285 6.133791 22
18.544123 24.236301 8.1441803 24
15.968051 25.82436 8.1220093 23
-0.48932248 21.320002 10.429018 18
18.837923 23.956816 11.460331 16
15.964669 25.805609 11.434914 22
14.218328 29.154865 14.109572 11
23.282185 25.417595 14.926064 9
