# .PCD v0.7 - Point Cloud Data file format
VERSION 0.7
FIELDS x y z intensity
SIZE 4 4 4 4
TYPE F F F F
COUNT 1 1 1 1
WIDTH 1278
HEIGHT 1
VIEWPOINT 0 0 0 1 0 0 0
POINTS 1278
DATA ascii
-1.1512053 -1.5925337 -0.21960147 96
-1.5239636 -1.264243 -0.16647044 112
-1.82288 -1.1193787 -0.22804451 117
-1.7713329 -1.1197481 -0.12126612 71
1.3821523 -1.0642352 -0.20548324 12
1.4159609 -1.0966223 -0.1251554 9
-3.6357338 -0.81241667 -0.20335077 17
1.1098416 -0.47856709 -0.11502149 25.666666
1.1473773 -0.30238634 0.010272997 24.5
-3.5808966 -0.1721611 -0.16763711 366
1.0013267 -0.063861504 -0.17124611 68
1.0904211 -0.071135849 -0.081530869 51
3.242873 -0.11662107 -0.002679579 189
-3.6102235 0.31458801 -0.14854744 107
-2.8886843 2.0901182 -0.053982578 105
-0.40665016 2.7437823 -0.011959873 28
-0.068297938 2.7784357 -0.003240481 26.5
0.18110856 2.9656055 0.07144887 52
0.59077972 2.9758828 0.078949481 43
0.87614441 2.892071 0.082090311 284
1.4037266 2.9708345 0.088585801 81
-0.79330462 3.0067301 0.047014296 221
2.2655799 3.3940051 0.10000297 216
3.8471134 3.6670146 0.10668236 147
3.2046895 3.8127751 0.10954884 24
2.9217393 -3.226218 0.02860745 10
-4.9904957 -2.2149854 -0.086833037 206
-1.6591153 -1.5052866 0.076710239 15
-1.7253096 -1.2491869 0.079354391 59
-1.5517782 -1.2739428 -0.023244649 107
-1.7990018 -1.1398966 -0.020930126 74
1.1239382 -0.31904984 0.093776301 27.75
3.4673765 -0.1325614 0.1626952 141
-5.4037695 1.0686375 0.050541796 135
-3.0963342 2.0616555 0.11580569 8
-0.50342309 2.6807013 0.18415545 18
-0.0033578449 2.6996903 0.19566505 37
0.41352692 3.0676699 0.2272042 96
-1.104997 3.3255939 0.21109267 37
2.2779536 3.5018606 0.30499792 197
3.238065 3.7523558 0.34986871 14
3.8168349 3.6312027 0.36262125 89
7.5434475 3.9073341 0.50958383 56
1.9816215 -2.4995067 0.25400287 31.5
-4.9767642 -2.2149277 0.18014613 290
1.3983104 -1.1646466 0.22117221 15
-3.8466847 -0.62735605 0.17455502 8
-3.7442665 -0.23897377 0.18451792 72
3.4964945 -0.14309105 0.33511215 99
-5.386826 0.85124004 0.30820265 304
-3.0519557 2.0783274 0.29809189 61
-0.96950096 2.4817147 0.42530805 9
-1.0087309 2.6891048 0.31653082 14
-0.70100778 2.9915028 0.42504174 148
0.5338428 3.0970948 0.38653803 54
2.3305249 3.3027873 0.49471971 169
2.221185 3.8070991 0.53799975 137
1.9761502 -2.5099401 0.48817992 30
1.4179336 -1.1959974 0.45598304 10.5
3.4884014 -0.15217397 0.50501043 160
-3.0268409 2.0531228 0.47390702 107
-1.0275544 2.355104 0.53513259 9
-0.80072886 2.9704523 0.65102363 52
2.3183255 3.2795398 0.68981993 175
2.6888509 3.2613664 0.72160357 63
2.2216837 3.8022947 0.75489241 162
1.8871391 -2.534898 0.63857758 17
-4.9731588 -2.2193005 0.44458005 318
3.4847126 -0.16366948 0.76651585 69
-5.4572587 0.64853954 0.56858897 96
-0.72292662 2.955677 0.80347639 178
-1.4961705 3.1970747 0.90122783 9
-0.10119273 3.4508257 0.92885149 14
1.3979439 3.6286967 0.86441642 27
2.9498508 -3.1660728 0.8858664 26
1.7986531 -2.5573907 0.78865647 22
-4.9652572 -2.2259407 0.71032745 249
3.4851165 -0.3071416 1.0349174 196
-5.3611574 0.69051468 0.82835412 240
-4.8901758 -2.2714605 0.97288764 197
3.4977517 -0.31504238 1.2291759 170
-5.3400388 0.74347734 1.1021127 129
2.7208459 -2.6095531 1.1815445 10
3.5110145 -0.23670588 1.4342428 33
2.8310122 -2.5973425 1.4200987 10
-4.8951836 -2.2811379 1.2503558 260
3.491895 -0.50606406 1.6311868 160
-5.4281406 0.47613922 1.3817481 72
-4.8505464 -2.2729836 1.5221685 107
2.8090718 -1.6395237 1.6302931 77
3.418678 -1.6578643 1.6870906 88
-5.2081404 -0.32098475 1.5654087 258
3.4892361 -0.47242537 1.8472903 163
-5.2932177 0.51376754 1.6350775 244
1.2229099 -2.5925624 1.9122174 50
1.7395852 -2.091527 1.8587638 25
1.7785538 -1.6862558 1.887483 26
1.9586343 -1.5250129 1.930161 19
2.2526102 -1.5330364 1.9156487 21
2.4627461 -1.5809869 1.8477496 17
2.8209498 -1.6096652 1.8386031 14
3.4133034 -1.617041 1.9095322 30
7.4743752 3.3511798 2.1234248 46
-2.0953257 -2.4170411 2.0489762 54
-1.4260678 -2.4057362 1.9952252 21
-0.74638748 -2.4271178 2.0187173 10
0.049829904 -2.4576812 1.9760381 7
0.8156144 -2.4704962 1.9166507 10
-3.9236989 -2.3520672 2.062748 146
-2.6637685 -2.4095149 2.0587566 137
6.7537394 3.7373028 2.8603103 74
1.7579986 -4.9519615 4.2969398 22
3.0795202 -4.7942076 4.2699494 29
-6.7456951 15.324091 5.0647626 26
-5.1194801 16.360525 5.259192 26
3.2778485 17.913509 5.8202205 17
1.7927418 -5.2774816 5.0562043 10
-7.6911793 15.261622 6.0720439 18
-6.520299 15.751353 6.1108856 16
-3.8535695 16.37285 6.133791 22
18.544123 24.236301 8.1441803 24
15.968051 25.82436 8.1220093 23
-0.48932248 21.320002 10.429018 18
18.837923 23.956816 11.460331 16
15.964669 25.805609 11.434914 22
14.218328 29.154865 14.109572 11
23.282185 25.417595 14.926064 9
14.599132 0.45703506 -1.5287977 55
14.610138 0.63625872 -1.5229492 32
5.8635898 3.8652647 -0.9292233 47
6.2083368 3.8777273 -0.97477275 59.333332
4.0989413 5.5679984 -0.87478054 20.5
4.5743055 5.6873851 -0.92845345 59
2.8006063 -3.3206007 -1.0597382 23.333334
2.8470271 -3.2114 -1.0413071 22
2.9155025 -2.9452808 -0.99324608 42.5
0.69883949 -2.3879631 -0.97367465 31.75
0.96645623 -2.387924 -0.99855101 35.318184
1.2730157 -2.4170144 -0.97243559 34.666668
1.9035189 -2.4069133 -0.98773819 25.375
2.2558055 -2.5904586 -1.0068703 27
2.6537449 -2.5617578 -1.0686911 82.888885
2.9960573 -2.5054092 -1.0146551 50.791664
3.3149958 -2.4189847 -0.94949055 42.5
-1.235734 -2.139394 -0.93323696 31.6
-1.0141536 -2.2804015 -0.94396561 51.81818
0.28148884 -2.166683 -0.98510265 44.277779
0.51053536 -2.3442738 -1.0120515 24
1.1144179 -2.3042371 -1.0578945 23.285715
1.4378637 -2.106657 -1.0369059 38.466667
2.2539756 -2.1494207 -1.0662043 17.5
3.1203628 -2.2122681 -1.0795391 48.666668
3.2978806 -2.0890336 -0.98830068 65.625
-0.94974208 -1.7359059 -0.90840489 82.340912
-0.77499968 -1.670393 -0.90083623 82
-0.011404462 -1.8077227 -0.92557174 47.375
0.15506886 -1.841473 -0.94345969 41.375
1.4145982 -1.6736026 -1.0028467 45.866665
1.8741336 -1.8345391 -1.0399776 18.846153
2.1063662 -1.5898224 -1.0270553 15
3.3232293 -1.9298503 -0.86570305 62
-1.1913927 -1.3846074 -0.89013064 49
-0.93967378 -1.3386291 -0.89234537 64.362961
-0.67134285 -1.3896 -0.89572394 68.895424
-0.082122721 -1.4117671 -0.90968037 63.583336
0.23891045 -1.3360947 -0.9090414 43.057693
0.56062478 -1.2262092 -0.93744296 49.634922
1.0224032 -1.3824612 -0.94294119 24.716667
1.3169465 -1.3994997 -0.98461908 54.200001
1.7018307 -1.5132754 -1.0238892 46.333332
2.3038378 -1.4006808 -1.0349376 26.75
3.3519423 -1.442269 -0.98679399 65
-1.4703746 -1.1112863 -0.89056039 8
-0.90147263 -0.92253745 -0.87327558 53.190018
-0.53446651 -0.91598856 -0.88171512 30.258862
-0.30329156 -0.96625113 -0.88550937 36.920212
0.23742616 -1.0045797 -0.88959396 27.650297
0.64185935 -0.97097337 -0.92471361 47.987278
0.87881786 -1.0854278 -0.8963185 27
-1.2189764 -0.74210304 -0.86076158 21
-1.004391 -0.56896222 -0.85916191 41.399033
-0.61817092 -0.70995539 -0.86991531 35.917316
0.68667191 -0.72500819 -0.91852492 29.450001
0.90765053 -0.38775465 -0.87140846 21.5
-1.2341496 -0.35841393 -0.84736663 17
-0.94797838 -0.3164154 -0.85002339 30.866665
1.1055721 -0.068671875 -0.90081114 21.863096
1.4240433 -0.086969569 -0.93660438 33.333332
2.1846044 -0.14720647 -0.95987135 15.583334
2.738584 -0.057642661 -0.97326732 9
3.3907325 0.015335487 -0.93224853 115.5
3.6454995 -0.045399066 -0.72543025 70
6.7554202 -0.059881911 -1.0352393 106.5
7.3588796 -0.086184449 -0.76451743 227
3.2207096 0.059459254 -0.96988899 31
3.4915066 0.052399598 -0.86819983 182
6.7578201 0.06392473 -1.0300503 94
7.3526416 0.093733549 -0.7558915 130.5
14.629189 0.41954467 -0.81652045 87
-0.92334038 0.75003624 -0.79306722 40
-0.37354344 0.81991583 -0.78818077 17
14.624865 0.68839788 -0.80533981 55.5
-1.1433407 0.9459936 -0.79307431 6
-0.43851674 1.1021746 -0.79637408 39.833332
-0.20685349 1.0770906 -0.8086279 44.563751
0.19810164 1.0575827 -0.82404935 37.804394
0.52392828 1.0954707 -0.83024633 39.430553
1.03449 1.0260563 -0.8525542 36.071426
1.4491942 1.1826508 -0.86870605 44.299999
14.633077 0.95825726 -0.79522932 56
-0.95141953 1.6256926 -0.75138223 103
-0.53936309 1.4369271 -0.77341121 61.788891
-0.17007698 1.4025271 -0.78890216 42.21085
0.22281882 1.4463029 -0.80721742 56.195923
0.54900652 1.3984741 -0.82358199 66.344223
1.0067357 1.5639973 -0.85528553 38.5
1.5182505 1.3203712 -0.87820953 63.111111
1.7520424 1.5166461 -0.88431084 59.846153
2.1563385 1.622864 -0.88907707 12
-0.89170253 1.8556142 -0.75632912 21.5
-0.53784049 1.7513654 -0.76244801 37
-0.34662238 1.690998 -0.76163054 45.333332
0.27750412 1.7996572 -0.78854311 41.083332
0.67826593 1.896852 -0.80980438 41.111111
0.97362453 1.8158327 -0.82875037 40.661766
1.4448316 1.758931 -0.8624481 51.666668
1.9159853 1.9107212 -0.88442558 48
2.0618563 1.7141458 -0.88029873 18.5
2.6555164 1.9165072 -0.91391724 39.777779
-0.89135343 2.1937432 -0.73869061 28.166666
-0.64721966 2.1182523 -0.74489552 16.6
-0.065227307 2.3421528 -0.76927364 21.5
0.25247943 2.21908 -0.78336066 22.192307
0.59578061 2.2255349 -0.80365366 23
1.0099788 2.3035512 -0.81322569 23
1.4165092 2.2101545 -0.85106081 28.76923
1.7339576 2.0990794 -0.88628733 27.857143
2.2542872 2.3229592 -0.89206058 38.083332
2.515208 2.1352251 -0.91487944 49.75
3.1762321 2.4310174 -0.91050225 43
3.3717358 2.2991762 -0.93542874 55.285713
-1.2188212 2.7487805 -0.71707356 57.5
-1.1142824 2.7831631 -0.7105214 78.25
-0.56673139 2.5110164 -0.72652614 71.583336
-0.18923688 2.6735723 -0.74590373 64.53846
0.22108653 2.7289782 -0.75277793 75.083336
0.61617559 2.7530606 -0.7702198 76.63636
1.0149789 2.7014489 -0.78507102 91.25
1.4396913 2.6830468 -0.82943344 88.099998
1.8237978 2.558959 -0.85915768 46
2.027786 2.4494638 -0.8712849 33
3.0295706 2.6895788 -0.91745842 65.699997
4.5473175 2.7762477 -0.96878433 32
-1.8225552 3.1682162 -0.70944607 120
-0.89479011 2.9259841 -0.7166875 78.199997
-0.67846286 3.0859518 -0.73260808 61.42857
-0.030764481 3.03917 -0.6848703 29.5
0.22827683 3.0500803 -0.6843152 50.545456
0.49693182 3.086194 -0.69485903 39
1.0010523 3.0754924 -0.71488887 172.88889
1.3427228 3.1032727 -0.74707294 160.16667
2.3178356 3.202539 -0.88237327 42.75
2.6469917 2.9962592 -0.89706552 52.875
2.8273687 2.8694651 -0.90680218 68
4.3229771 3.093364 -0.95708108 62.599998
4.4819412 2.9269359 -0.96940827 54.5
-1.6243021 3.2696462 -0.69930816 39
0.70403844 3.4392447 -0.78369248 58.666668
0.82416737 3.3028951 -0.75653225 70
1.8295871 3.354594 -0.84955812 109.42857
2.1895506 3.398706 -0.79682946 118.9
3.5949018 3.637517 -0.90241462 34
3.8699079 3.5520349 -0.9323566 65.199997
4.1312099 3.3533378 -0.9510448 65
4.8458657 3.635879 -0.78746229 14
6.1254721 3.6060898 -0.5968616 124
0.68168974 3.6623111 -0.64555299 102.66666
1.9956586 3.8738265 -0.75287133 114
2.1443281 3.8149202 -0.7565459 143.39999
3.1601729 3.9385846 -0.88412607 48
3.4381111 3.836725 -0.77646816 67.833336
3.712569 3.7293348 -0.79630148 120
4.3260021 3.910584 -0.74608433 51
4.6090913 3.9194622 -0.7789582 182.33333
5.0206485 3.8903472 -0.66623509 104.5
5.4119182 3.7024679 -0.69827002 58.5
5.6960406 3.7475395 -0.73279566 89.5
6.1450257 3.7194376 -0.60128629 104
2.9984674 4.0811176 -0.88485527 73
4.3656731 4.1957383 -0.77313799 194
4.4589972 4.1821465 -0.78218853 103
6.1267796 4.2400374 -0.61407477 33
6.7783098 4.2170334 -0.67018074 46
-1.3171639 4.488266 -0.64006335 68.5
4.1605134 5.5670247 -0.5350374 63.5
4.0810447 5.6743522 -0.53734171 34
2.8863184 -3.2355185 -0.82786018 11.5
2.9520676 -2.936321 -0.67684489 47.671429
0.34865198 -2.4017091 -0.69357967 71.98333
0.57629693 -2.4111755 -0.70172966 61.184296
1.0063162 -2.4297392 -0.66172945 67.969696
1.4075059 -2.4445374 -0.69712466 47.799999
1.7766387 -2.4605913 -0.6600132 34.214287
3.0722547 -2.6017084 -0.63691771 29.07143
3.3356705 -2.4269874 -0.63876283 31.25
-5.0136786 -2.089129 -0.61368263 160.33333
-4.3998046 -2.0329785 -0.78904116 47
-4.1708736 -2.1694579 -0.77097863 40
-2.5883853 -2.2833517 -0.57555544 41
-2.0688758 -2.2802866 -0.67113537 18.200001
-1.7295654 -2.2574573 -0.76587564 37.891666
-1.3636652 -2.2417142 -0.77345943 56.949242
-0.93612289 -2.2931032 -0.72918123 30.550001
-0.51372391 -2.0934961 -0.62806547 45.400002
-0.093088329 -2.0279644 -0.69267821 44.616665
0.10009032 -2.0390327 -0.69354177 43.261906
3.3466873 -2.1646061 -0.60465705 52.25
-5.0560517 -1.9029388 -0.60390663 160.5
-4.3930578 -1.7410727 -0.75977397 125
-4.2798386 -1.7720064 -0.74642169 88
-3.3675873 -1.6032038 -0.78862476 88.5
-2.921196 -1.7157394 -0.72125745 131.75
-2.562068 -1.7607851 -0.82682621 67.222221
-2.0068612 -1.8588727 -0.87582564 98
-1.7859645 -1.7529008 -0.8660537 54.933334
-1.3690336 -1.7600206 -0.89585567 71.388885
-1.0455879 -1.7741913 -0.890872 60.666668
-0.5743041 -1.7608151 -0.68483412 31.078094
-0.16338611 -1.6405337 -0.74563456 32.962669
0.19497162 -1.9196306 -0.64968574 24.75
3.3650818 -1.8005036 -0.56160212 56.637501
-5.1346507 -1.5450627 -0.58645529 13
-4.6685615 -1.2124147 -0.75515735 12
-3.3456578 -1.3960135 -0.75974202 188.33333
-2.8306983 -1.3965224 -0.74277449 106.73334
-2.5090673 -1.4041811 -0.75089139 79.523811
-2.1053147 -1.2971718 -0.77628219 46.416668
-1.7602614 -1.3245105 -0.75355691 37.835228
-1.4056089 -1.3125271 -0.75185531 41.995728
-1.0297316 -1.3443995 -0.87501866 49.583336
-0.43094385 -1.3431978 -0.81064641 43.65625
-0.25555199 -1.3732362 -0.80009711 44.414787
0.26236251 -1.2697239 -0.68662649 29.588236
1.0824349 -1.3681364 -0.69128704 10.866666
3.3894637 -1.5475714 -0.4418692 54
-4.4482641 -0.99596781 -0.70565498 147
-3.3357656 -0.77487427 -0.69445372 256
-2.8215442 -1.1119412 -0.78416121 125
-2.4234827 -1.005366 -0.81330347 90.125
-2.2171547 -1.0520759 -0.82521409 69.800003
-1.7261994 -0.98016417 -0.83750838 61.055557
-1.3202543 -0.88720626 -0.85629952 50.066666
-1.0901113 -0.91300762 -0.86058319 53.722225
-0.45811245 -1.0741444 -0.83598208 22.772728
-0.1055944 -0.93167198 -0.76661193 15.595555
0.19732079 -0.97757506 -0.69842172 16.936905
0.5959053 -1.0006471 -0.63432431 17.241072
0.85425889 -1.1145446 -0.80690384 20
-4.4552426 -0.5865677 -0.67898738 90.428574
-4.2084074 -0.76663148 -0.65286565 109
-3.6310189 -0.7542972 -0.56431103 73
-3.3955643 -0.57067823 -0.69021678 177.88889
-2.9647667 -0.5513736 -0.75778854 165.39999
-2.512619 -0.49624681 -0.77316219 85.375
-2.1645014 -0.43920618 -0.78301072 63.799999
-1.7388073 -0.62542927 -0.817514 59.094444
-1.3707952 -0.59869188 -0.83785474 68.500595
-1.0984776 -0.49415228 -0.84555185 50.5
-0.094878212 -0.7618947 -0.69786769 31.456141
0.58268285 -0.54608381 -0.68298191 33
-4.5042157 -0.28579241 -0.66853631 65.75
-3.4165325 -0.25401476 -0.67267072 303.33334
-2.9760399 -0.23568344 -0.73584175 150
-2.5449979 -0.22984153 -0.75948596 90.444443
-2.1774926 -0.2248856 -0.7664994 33.599998
-0.93476033 -0.11089072 -0.80488819 12.277778
-0.78139949 -0.24697739 -0.81407773 6
0.80966604 -0.01079363 -0.71492571 10
0.91003972 -0.076924786 -0.4586083 12.5
3.6275768 -0.00092476606 -0.71956789 138
7.3579631 -0.10582188 -0.40529907 231.5
-4.5463924 0.41165629 -0.64396387 45
-2.949471 0.33815411 -0.6269989 132.825
-2.5329254 0.31994948 -0.73141479 95.333336
-2.183279 0.3198103 -0.7449885 43.666668
0.85644448 0.28330475 -0.46267784 172.41666
3.6179144 0.0432145 -0.71558285 152
7.3677621 0.074362844 -0.39795244 175.5
14.707451 0.38321486 -0.10338017 93
-5.5278201 0.62765485 -0.51376605 115.6
-4.5035276 0.63198 -0.63122213 60.857143
-3.4818189 0.67067045 -0.65333956 147.57143
-2.890393 0.57986641 -0.68672043 131.5
-2.4902875 0.51945251 -0.71852505 88.571426
-2.1407673 0.50441694 -0.73234701 58.400002
-1.0042694 0.81302035 -0.77227992 46.333332
14.675748 0.65242654 -0.091618747 80.5
-5.4050155 0.8849951 -0.49271393 221.33333
-4.457365 0.93598694 -0.61761177 61
-3.492841 0.89789075 -0.65428191 33
-1.6324798 1.1800952 -0.73553574 40.200001
-1.2473555 0.99177182 -0.75514042 35
-1.1235508 0.89551598 -0.76785195 50.5
-0.066191576 1.1256499 -0.55174941 28.342859
0.03954789 1.1183753 -0.5407362 10.125
14.681361 1.013885 -0.076589227 46
-2.1947401 1.5762049 -0.70739305 27
-1.7146881 1.3089892 -0.72479242 60.25
-1.5835166 1.2668899 -0.73528278 68
-0.95301527 1.5985514 -0.74263507 49.333332
-0.66526806 1.377878 -0.72987044 17.5
-0.15524499 1.3339084 -0.61523581 13.444444
16.778393 1.469354 -0.080074281 15
-2.5448785 1.8937747 -0.67129064 51.333332
-2.1461108 1.6638408 -0.70601773 30.333334
-0.98767668 1.7417161 -0.73998338 36
14.664307 1.7381067 -0.047072679 18
16.760159 1.674971 -0.071553081 26
-3.0333333 2.2574537 -0.52256238 85.875
-2.7856686 2.247977 -0.39439982 12
-2.242897 2.2745702 -0.65208024 35
-1.3426085 2.2876642 -0.59320474 34.200001
-1.1334845 2.3347416 -0.52575701 20.311111
-0.43475771 2.1092401 -0.71477795 11
-3.9120398 2.7439473 -0.55542642 48
-3.1722262 2.4427466 -0.65050143 78
-1.3497465 2.4900715 -0.68265212 87.444443
-1.0556854 2.4938252 -0.4349761 19.4
-0.42387775 2.7947106 -0.50136876 20.333334
-0.25611037 2.798306 -0.49376017 27.798943
-2.90674 2.9382195 -0.64596844 8
-1.7263002 3.1002219 -0.68569779 304.66666
-0.81410766 3.0532875 -0.49671495 121
-0.75291729 3.0882652 -0.49662226 115
-0.090549432 2.8934727 -0.57733035 21.799999
0.24664849 3.039408 -0.44984502 47.638885
0.43264067 3.0383976 -0.44964224 52.5
0.99698728 3.0575042 -0.46633953 183.61111
1.3243316 3.1014643 -0.49012244 116.75
-1.2678585 3.3321154 -0.66824603 89
-1.0477909 3.3423557 -0.47323662 71.900002
-0.70329165 3.4333854 -0.45987538 156.71666
-0.018272962 3.5509069 -0.35964715 127.75
0.090155214 3.5514226 -0.35749972 183.66666
0.79348469 3.442276 -0.43337464 53.833332
0.82249463 3.3200107 -0.41751152 70.166664
2.2691834 3.4504235 -0.4028495 177.425
4.8789949 3.5434184 -0.19267398 4197
0.71402138 3.6503041 -0.36493641 185.70834
0.82281059 3.6695118 -0.36818811 198
1.8282815 3.8186643 -0.41295445 198
2.1606896 3.790314 -0.42673624 179.8
3.0717235 3.8570869 -0.36941382 10
3.4064472 3.825377 -0.38834301 60.5
3.7033391 3.7717423 -0.40541738 185.25
4.2532969 3.827986 -0.30863056 69
4.6236858 3.9130313 -0.33193758 190.66666
4.9516015 3.7833982 -0.35099179 848.59998
5.2818213 3.6897094 -0.21114632 142
5.9618602 3.8994887 -0.24258763 21
6.0107646 3.8272648 -0.24478269 26
6.5659013 4.0129128 -0.27094778 35
-1.4471327 4.339045 -0.63087696 89.25
4.3583684 4.1709261 -0.32471484 172.5
4.4523425 4.1578126 -0.32995373 176.5
5.303617 4.0540423 -0.21391708 64
6.3441567 4.2615056 -0.26081547 72
7.0123887 4.0533438 -0.29233658 33.5
7.3474278 4.069901 -0.30866566 29
4.0953946 5.3999915 -0.19118115 110
4.3234987 5.9239717 -0.20900151 19
2.8930485 -3.2404974 -0.39650503 8
2.9552982 -2.9796464 -0.26869747 56.5
-0.42969465 -2.4006658 -0.15896642 132.5
-0.2505506 -2.3981655 -0.27212915 114.4127
0.33745331 -2.4252646 -0.26288852 129.4881
0.60608333 -2.4406765 -0.26286831 133.47223
0.99534887 -2.4560041 -0.26584733 120.18182
1.3998693 -2.4776046 -0.27359116 112.6
1.7933867 -2.4766424 -0.28184164 45.439816
2.0252171 -2.4933383 -0.44776711 9
3.0442684 -2.707438 -0.24761589 27.75
3.3408079 -2.4611256 -0.23415898 49.333336
-4.8859229 -2.1473792 -0.47307983 153.625
-4.541687 -2.2083292 -0.45299658 121
-4.1669869 -2.2197452 -0.42595625 110
-3.862052 -2.2443781 -0.40620247 105.16666
-2.1339474 -2.2976952 -0.44691575 67.833336
-1.8404714 -2.3254724 -0.42206681 75.222221
-1.3602327 -2.2606962 -0.31405532 100.1
-0.97852564 -2.3033893 -0.2938984 79.474998
-0.60680252 -2.2693951 -0.32358426 102.68462
-0.28358519 -2.389719 -0.21275827 125.75
0.25255755 -2.1984146 -0.28897655 19.5
3.3568661 -2.1703115 -0.21237814 65.857147
-5.0575209 -1.8745599 -0.33727965 260
-1.8643836 -1.8622798 -0.17398912 43.666668
-1.4539002 -1.787165 -0.15054114 42.166668
-0.91316551 -1.6982849 -0.16809408 91.84375
-0.56888044 -1.9055527 -0.32243034 25.416666
-0.1104404 -1.8404895 -0.24421105 23.53125
0.072686471 -1.8146715 -0.2334259 26.036905
3.3764067 -1.7925756 -0.18535058 57.071426
-5.109086 -1.3541313 -0.44160616 81.5
-2.8714328 -1.4579488 -0.51446515 126
-2.5987449 -1.5062453 -0.48194933 76.333336
-1.621181 -1.3223568 -0.28001636 82.903847
-1.4451133 -1.3477961 -0.31214309 64.591667
-1.140818 -1.4661766 -0.33682865 55
3.3982408 -1.4338297 -0.16152897 91.944443
-5.2116199 -0.89087695 -0.55296564 223
-5.1597085 -1.0461062 -0.55688268 190.25
-1.7155739 -1.1578918 -0.27450877 83.380951
-0.98532283 -0.98360765 -0.14173123 8
1.4070848 -1.1078223 -0.1691356 17.25
3.4156981 -1.1699183 -0.056995414 17
-5.2180591 -0.59750479 -0.53729051 211.33333
-3.633688 -0.62736559 -0.19391948 152.42857
-3.5528066 -0.49850428 -0.27117985 80
1.0071877 -0.47107056 -0.20999074 64.377388
3.4455528 -0.52909493 -0.024163246 155.5
-5.2406225 -0.3402251 -0.52624172 319
-3.5682819 -0.3033857 -0.17462188 210.2
1.0522484 -0.22945145 -0.11071583 85.514595
3.1564701 -0.16313812 -0.15742743 220
3.2396052 -0.17863685 -0.16211173 189.33333
7.3614945 -0.1254406 -0.047015637 292.5
1.084842 0.038904481 -0.15627076 15
7.3904004 0.055242307 -0.039407969 190
-5.5114093 0.65073413 -0.23956701 122.75
-5.4177394 0.96341938 -0.22244751 276.75
-0.10501157 0.986853 -0.35621253 19
-8.9603815 1.906358 -0.38059849 39
-7.9609919 1.8989012 -0.32662499 89
-8.9560308 2.0205452 -0.37623128 28
-2.9224157 2.0836337 -0.1427702 97.791672
-2.7466443 2.1494858 -0.13025247 81.833336
-1.252805 2.3594716 -0.23592985 8
-1.0634146 2.3756757 -0.22195868 12
-0.45762193 2.7467351 -0.080971271 19.166666
-0.24895059 2.7703485 -0.075585589 102.86243
-0.853854 3.1019418 -0.18739268 112.5
-0.73809838 3.0354695 -0.10309623 181.16667
-0.11864993 2.82442 -0.21056333 15
0.28894201 2.9864128 -0.073042735 74
0.45681465 2.997664 -0.070795283 63.244442
0.99535805 3.0077782 -0.069785997 185.22221
1.2693683 3.0181253 -0.071631476 172
-1.1978743 3.2328601 -0.13075286 11
-1.0421748 3.2922666 -0.041704923 123.33333
-0.70029861 3.4140954 -0.030437663 279.75
-0.031427585 3.4222884 -0.014170378 83
0.11982243 3.4636197 -0.08998239 135.78334
0.82018179 3.3695703 0.0025332123 74
2.2897599 3.4121161 0.00082942843 175.25
0.74537235 3.6373441 -0.0016645193 195.83334
0.8166827 3.6435189 -0.00097329915 221
1.8756181 3.7891474 0.00099639595 228.89999
2.1594083 3.7655396 -0.0004350543 228.58333
3.0698106 3.8189862 -0.0089484155 20.333332
3.4052665 3.8113086 -0.014829889 97.125
3.7058251 3.7604961 -0.019781977 172.125
4.2598739 3.8184059 0.10910653 58.5
4.7057514 3.7951362 0.10737339 155.25
4.9268093 3.6591384 0.10346524 37
5.7920132 3.8750021 0.10476224 37.333332
6.2475519 3.9086421 0.10321623 34.5
6.6460347 3.9907682 0.10308273 37
7.3844485 3.896961 0.09584257 65.5
4.3705168 4.0650897 0.1140749 23
4.6374707 4.0055356 0.11225121 199
5.2813473 4.1275105 0.11301169 33
5.7855 4.1351314 0.11117508 33
7.0093622 4.0345087 0.10204779 35
4.1694655 5.4878335 0.14052585 202.33333
4.1008029 5.6809201 0.14355348 91
2.8965366 -3.3789675 0.24092379 8.5
2.9798369 -2.9560297 0.14187732 37.457146
-0.47131976 -2.4102716 0.077347726 140.98889
-0.19724163 -2.419487 0.081575267 146.88097
0.20598447 -2.441875 0.091226704 144.71794
0.59596115 -2.4621952 0.10445923 140.77777
0.98646158 -2.4807966 0.12129588 130.81819
1.3895148 -2.5010645 0.14213687 123.16666
1.7853882 -2.5161545 0.16466495 54.833332
2.0035627 -2.5062454 0.021484457 17
3.0734375 -2.6791911 0.15179108 31.049999
3.3076444 -2.5115573 0.16763178 30.5
-4.9721313 -2.1185567 0.049328327 276.875
-4.5702643 -2.2348337 0.040687129 212
-4.1960077 -2.2465625 0.035270646 215.33334
-3.8214698 -2.2613962 0.029662222 158
-3.4176145 -2.286751 0.12486368 116
-2.4348834 -2.2509787 0.015943214 135.35001
-2.1640375 -2.3379731 0.08900094 155.75
-1.7911516 -2.3511992 0.083045796 169.66667
-1.4017296 -2.3664715 0.077848867 192.13335
-1.0131631 -2.3845639 0.075304702 138.21716
-0.65408814 -2.3848655 0.076162167 164.72592
3.3484826 -2.2057517 0.17548007 63.476189
-5.0419903 -1.8107203 0.059396207 283.29999
3.383775 -1.807557 0.18749955 55.284721
-5.0730972 -1.2810907 0.20522559 11
-1.6693224 -1.4012742 0.079511791 37.708332
-1.5701352 -1.2258191 -0.021783091 118.33334
3.4049556 -1.4213939 0.19911622 104.52083
-5.1489697 -0.9822793 0.088978782 151.54166
-1.693157 -1.1765156 -0.021248549 68.333336
1.4085258 -1.1551085 0.17874512 45
-3.7829106 -0.48432028 0.084162824 27
3.4545145 -0.54398698 0.23063877 163.75
-5.2383251 -0.26563099 0.12069187 311
-3.7346728 -0.31221774 0.089609548 38
1.1189497 -0.3185055 0.093477204 43.511108
3.4643197 -0.28664207 0.24135697 177
7.384932 -0.097678125 0.31406778 254.33333
7.3921304 0.083626732 0.32225293 56
14.36199 0.34148327 0.60021079 62
-5.4970555 0.61547929 0.1646136 156.93333
14.306595 0.60397351 0.60969174 62.5
14.466266 0.96690995 0.63194877 72.5
14.605107 1.2463101 0.64977604 24
-2.965265 2.0900841 0.20818773 48.75
-2.7468543 2.1321371 0.20789516 44.333336
-2.2774119 2.2575028 0.36851993 25
-1.1683687 2.3662732 0.41283947 8
-0.98286712 2.6202469 0.37575686 15.404762
-0.43714443 2.6910181 0.18605812 30.333334
-0.20246561 2.6954837 0.19113477 59.545456
-0.93722939 2.7986817 0.472828 14
-0.75631338 3.0031617 0.34995219 159.11113
0.31399378 3.1301155 0.30638713 49.25
0.46238366 3.1440477 0.38927859 50.666668
-1.0213012 3.2702272 0.20931841 20.75
-0.64545119 3.3755305 0.30777562 165.125
-0.21897973 3.4518025 0.40582919 253.77777
0.13394429 3.3999259 0.32415897 168.15475
0.64872795 3.4909527 0.34747073 167.89999
2.3119276 3.3885503 0.4008112 150.925
0.75798535 3.5960059 0.26700971 203
0.97831881 3.6275253 0.36694109 241.25
1.3971263 3.6889415 0.38672042 246.1875
1.8003402 3.7450912 0.4068467 226.5
2.1664271 3.7424202 0.42148054 163.75
2.7477744 3.6974847 0.5581724 10
2.9651968 3.7211359 0.45461935 11.125
3.4303787 3.778276 0.48336104 94.5
3.7130425 3.728579 0.49416506 162.675
4.2601089 3.8109367 0.38749489 46.5
4.6578083 3.867403 0.40426776 156
6.1147161 3.9729433 0.46124494 45
6.5477972 3.9735255 0.47682935 33.5
7.4427538 3.9718909 0.509188 95
4.3526654 4.0405235 0.40305984 27
5.4870691 4.2234273 0.45215577 29.5
6.1788888 4.2352519 0.47722527 34.333332
6.9232583 4.1058207 0.49721763 39.333332
7.3223753 4.0239882 0.50746018 71
4.2316761 5.5622492 0.48284537 132
4.1890707 5.6491079 0.48633605 251
2.9275842 -3.3797071 0.57274359 9.166666
2.9877357 -3.0077255 0.55691564 32.583336
-0.8365801 -2.4176581 0.32323295 93
-0.58650118 -2.4283879 0.44413361 141.08653
-0.20785469 -2.4449563 0.44318455 145.83333
0.19722947 -2.4680719 0.45619977 132.51282
0.58821172 -2.48914 0.48196951 127.05555
0.9798227 -2.5090606 0.51929951 121.72727
1.3556226 -2.5283759 0.56428242 118.38889
1.7829307 -2.5358546 0.54543382 50.5
3.0511041 -2.7386582 0.55102819 18.625
3.3468628 -2.526974 0.57966506 42.291664
-4.9443617 -2.1575854 0.44218928 301
-4.5838475 -2.2494853 0.41318929 263
-4.1598835 -2.2713726 0.49469241 209.16666
-3.8395641 -2.2818708 0.46478838 185.625
-3.4302692 -2.3018675 0.42651069 131.2
-3.0353444 -2.3171101 0.39072642 136
-2.5596373 -2.3363051 0.43889365 193.42223
-2.244406 -2.3509176 0.40806884 161.08333
-1.7495315 -2.3778331 0.51553261 161.37036
-1.4107137 -2.3917661 0.48670757 179.1606
-1.0205046 -2.405549 0.45992854 153.23232
-0.73418212 -2.4218702 0.51088268 144.63333
3.364228 -2.2275741 0.57250464 61.928574
-5.0265188 -1.8500063 0.44969404 334.16666
3.3963976 -1.8381991 0.56607884 59.583336
-5.060832 -1.5857629 0.45452768 325.5
1.4138157 -1.2260269 0.50602496 9
3.4235003 -1.4266808 0.56362474 90.0625
-5.1581078 -0.88117057 0.47561052 169
1.4237285 -1.1937159 0.45691752 12.5
3.4501393 -0.98306924 0.65701509 83.804237
-5.1889095 -0.62724662 0.48563534 304.66666
3.4623721 -0.63449293 0.66288525 128.1852
-5.2294788 -0.34174109 0.49970245 352
3.4811256 -0.31018975 0.67360955 199.27777
7.3930206 -0.11751214 0.67796302 255.66667
7.4132404 0.0641945 0.68764812 55
-5.4718986 0.60812402 0.56779635 186
-5.3879123 0.87565899 0.57582664 321.5
-2.9258139 2.0987346 0.56051111 50.333336
-2.7501361 2.1304493 0.54999453 33.75
-2.2997344 2.2644522 0.61000764 5
-1.1019293 2.3643055 0.54025543 11
-0.72577834 2.9754188 0.72937167 162.25
-1.3382237 3.2131755 0.89524484 20.5
-1.0288225 3.2333422 0.88467228 23.125
-0.58184344 3.3790164 0.73344499 174.66667
-0.22974934 3.4320519 0.74621952 152.32408
0.11784805 3.4784863 0.76253927 145.83333
0.57513762 3.5418744 0.70258439 272.82141
2.292855 3.4208949 0.70713484 242
2.5506094 3.3364987 0.71870899 4272.7998
2.7952464 3.3063779 0.73776901 9
0.75405759 3.5812545 0.62665594 314
0.97014636 3.6020682 0.73384511 250.0625
1.3322419 3.6389971 0.76360822 204.61429
1.7566267 3.7058542 0.70557809 226.42857
2.1673133 3.7090657 0.73738939 220
4.2706776 3.7571709 0.80636758 47.333336
4.667285 3.8158212 0.69956505 119
5.8033977 3.9105248 0.79258454 52.5
6.3610244 3.7916584 0.82655263 91
6.4391289 3.8391507 0.83638668 78.5
7.3891883 3.9253125 0.91831589 35
4.5429015 4.0691447 0.71239555 166
5.708488 4.0017424 0.79267812 90
6.8876224 4.3982105 0.91492581 56
7.9368834 4.4704585 1.0028794 66
8.0046959 4.3797235 1.0014435 46
5.8322859 7.0035691 1.0659633 14
30.382084 21.947481 2.2651734 8
3.2990026 -4.1055298 1.0532222 142
3.3291333 -3.9428189 1.0385275 147
2.917917 -3.289283 0.8944571 23
2.5284121 -2.8650806 0.97781706 14
3.0032735 -3.0079536 0.87821215 38.714287
-0.88408029 -2.449023 0.86493903 133
-0.53331739 -2.4545636 0.84078181 125.93333
-0.21553858 -2.4640021 0.83482164 123.7381
0.18990165 -2.4908774 0.85284716 117.66666
0.5820713 -2.5144379 0.8930375 125.44445
0.94989681 -2.5333605 0.94784874 110.71429
1.4215847 -2.5515001 0.88034713 106.86667
1.742679 -2.5632153 0.94539738 65.886902
2.0717416 -2.596087 0.93617922 14.1
2.452177 -2.5927737 1.1109749 12.333333
3.0007794 -2.7869568 0.95845819 13.1
3.381603 -2.5443041 1.0141979 42.625
-4.9649882 -2.1690695 0.84551263 262.16666
-4.602397 -2.271158 0.79504311 209.16666
-4.2591476 -2.282558 0.74499923 189.5
-3.7490091 -2.3169961 0.89644492 153.39999
-3.3954673 -2.3192098 0.83456296 118.25
-2.9571347 -2.3447742 0.85831523 156.27777
-2.6655517 -2.3522527 0.80661166 185.1111
-2.1642838 -2.3795068 0.89463878 132.375
-1.8225207 -2.3909876 0.83641952 151.48149
-1.3682394 -2.4121103 0.91982591 167.93333
-1.0411514 -2.4267631 0.87878639 139.98149
-0.73258376 -2.4339044 0.84791106 131.35834
3.3971524 -2.2158201 0.98720348 58.428574
-5.0194197 -1.8615545 0.84599876 265.75
3.4175496 -1.832521 0.96247756 61.642857
-5.0591621 -1.4991964 0.84664643 286.16669
3.4302919 -1.4390582 0.943057 92.638885
3.4536972 -1.0415717 1.030766 101.27778
-5.177608 -0.61004525 0.87252098 257.375
3.47421 -0.65939164 1.1246346 175.88889
-5.2237129 -0.28866735 0.75966817 344
-5.2020431 -0.37246501 0.88345134 327.41669
3.4932556 -0.31130081 1.1328089 176.66667
7.4026775 -0.13754827 1.0420955 288.33334
7.4403877 0.044713669 1.0551753 24
-5.4297113 0.60876358 0.96956331 166.5
-5.3791065 0.928599 0.84730726 218
-8.9883089 2.0898647 0.97996861 57
-4.200892 2.9095988 0.90453196 45
-1.80274 3.2094569 0.92719615 7
4.3081441 3.7321861 1.2337462 44.5
7.6290097 3.9145963 1.3603543 36
6.4747062 4.1763558 1.2461505 93.666664
7.4099169 4.0960841 1.3510336 30.5
8.2129717 4.3432579 1.4744503 59
7.5017772 4.5799866 1.4113526 13
7.8243475 4.5814734 1.4505403 49
-2.3484704 7.3098011 1.1801666 38
3.3297606 -4.1664619 1.3405983 98
3.3238218 -4.0566568 1.3217611 40
-0.92478085 -2.46451 1.3339992 121
-0.58336741 -2.4718678 1.2950515 102.80682
-0.22439274 -2.4856458 1.2808555 121.5
0.18112212 -2.5090106 1.3020175 117.82052
0.5146659 -2.5332835 1.3486942 106.41666
1.0098562 -2.5500252 1.2797906 100.05303
1.3114462 -2.5703962 1.3575338 81.414818
1.7809144 -2.5898647 1.3099023 42.236111
2.166537 -2.6061401 1.3290385 9.75
2.5312753 -2.600853 1.3317912 13
2.8388932 -2.5980017 1.3156048 12
3.3252881 -2.5741317 1.4536872 60.799999
-4.9613743 -2.167062 1.2577918 328
-4.627542 -2.2938075 1.19311 210
-4.2180634 -2.3074579 1.2325286 181.41666
-3.8446794 -2.319829 1.1466089 147.375
-3.4114604 -2.3454049 1.2747172 102.875
-3.0381651 -2.3554282 1.1797472 135.03334
-2.6326818 -2.3711371 1.2790391 156.2619
-2.1912296 -2.3902557 1.2586343 129.94444
-1.8216161 -2.408128 1.2570561 151.38889
-1.4187156 -2.4257152 1.2531432 145.91962
-1.0338404 -2.4493685 1.2663033 137.39394
-0.76055622 -2.4527011 1.2249885 125.25
3.3976653 -2.2541139 1.4282216 56.678574
-4.9956307 -1.8644621 1.249511 276.33334
3.0385258 -1.9649665 1.5818708 101
3.4285698 -1.8595394 1.3866806 58.714287
-5.0436864 -1.4734006 1.2458851 174.66667
3.4423499 -1.4512898 1.3496664 82.222221
-5.0657763 -1.2157503 1.2451496 215.5
3.4602685 -1.0541214 1.4315604 106.45834
-5.1518331 -0.52559578 1.2671666 163
3.4714143 -0.68649638 1.5228674 152.07639
-5.1838555 -0.36939257 1.2795185 321.66666
3.4877431 -0.40232235 1.5256431 80.099998
-5.4484863 0.55996722 1.2502226 114.675
-6.9518709 1.6878278 1.1235617 75
17.906269 2.5971611 1.7314692 18
17.889603 2.9325349 1.7480775 12
4.2813034 3.6947119 1.6684304 49
7.4409738 3.806484 1.7456887 58
7.6346684 3.6703265 1.7625347 11
6.3438835 4.2502632 1.6217005 38.5
7.0168552 4.273252 1.7333574 61
7.4814706 4.2447567 1.8061962 58.5
7.5009813 4.44203 1.8344572 42
7.5412154 4.8524742 1.894767 86
7.7380447 4.8449149 1.9255805 47
-0.91772139 -2.4789433 1.6006042 93.449997
-0.67260599 -2.4911048 1.6603632 82.779953
-0.24474001 -2.5105767 1.7224326 88.42308
0.1534998 -2.5273221 1.7419791 86.192307
0.55066955 -2.5421617 1.7119486 82.496216
0.96269286 -2.5722022 1.7250139 72.363632
1.3282973 -2.5787084 1.7379425 50.383331
1.7634133 -2.575068 1.6811852 37.34444
2.075866 -2.5518932 1.5786428 49
2.6609211 -2.5452151 1.5695924 77.666664
3.2300045 -2.6849415 1.5613382 26
-4.9300208 -2.165885 1.534516 127.66666
-4.5976152 -2.3140802 1.5982022 146
-4.2555728 -2.3275177 1.6344498 158.66667
-3.8557398 -2.3459306 1.6425515 142.79166
-3.5398059 -2.3476713 1.5412191 101
-3.0450196 -2.3738496 1.6178297 117.36667
-2.5964987 -2.3932242 1.6860499 156.625
-2.2102745 -2.4107101 1.6600672 121.625
-1.830452 -2.428812 1.6383464 132.72223
-1.4810101 -2.4481528 1.6351998 127.86667
-1.0844325 -2.4609342 1.6281744 120.89682
0.7379511 -2.4816997 1.903281 10
0.78263491 -2.4692991 1.9066867 8
1.7734308 -2.2496409 1.7467481 26.787039
2.145586 -2.2540495 1.6015188 58.385712
2.4336636 -2.1772733 1.5970994 61.5
2.8900452 -2.2698503 1.5875297 80.099998
-4.9801278 -1.8716395 1.5269691 246.66667
1.8005669 -1.8506711 1.7811936 32.299999
2.1174178 -1.7956148 1.6307907 41.294872
2.5092003 -1.7852336 1.621464 64.125
3.0984349 -1.91308 1.5968667 92.14286
3.1957123 -1.72291 1.6040322 63
-5.0469289 -1.487783 1.5249772 254
1.8426933 -1.5826828 1.7847917 18.5
2.1332848 -1.5833515 1.7623875 35.708332
2.53403 -1.6046951 1.7921805 44.119049
2.917345 -1.6178844 1.7830367 47.375
3.4066632 -1.4930528 1.7751082 77.199997
-5.0727243 -1.1660508 1.521419 285.5
3.4709487 -1.0959977 1.7603277 96.0625
3.4847488 -0.693726 1.8518206 138.88889
-5.1937761 -0.38503161 1.5569508 130
3.8195345 -0.42098022 2.0195785 77.333336
-5.2837234 0.55255967 1.6357967 229.2
7.4219341 3.4386408 2.1237285 63
7.6035347 3.2410009 2.1374331 28
4.2878141 3.6919229 2.1336796 37.5
7.7777514 3.8393862 2.2568843 53.333332
7.7770324 4.1445942 2.3006322 51.5
6.8464999 4.5103803 2.1633153 63
7.7745123 4.3934703 2.3372612 45.5
-4.1530781 14.781327 2.3463161 27
-4.9477658 16.077129 2.5532846 37
-4.7280445 16.064713 2.5490918 24
-0.93370932 -2.4970591 1.9038287 71.599998
-0.82141113 -2.5091512 1.8864672 81.5
0.59578198 -2.5505781 1.9173013 67.25
-5.4572983 -2.2933424 2.0096211 139
-5.051518 -2.3042469 1.8806146 145
-4.6696715 -2.325799 1.9067919 158.5
-4.2505507 -2.334733 1.9067855 162
-3.9046214 -2.3509002 1.9187776 133
-3.4675076 -2.370775 1.8884397 100.6
-3.0332465 -2.3914487 1.9689143 98.833336
-2.6541948 -2.4090126 1.9358596 127.33334
-2.2855475 -2.4125502 1.9010806 120
-1.850679 -2.4359813 1.9585664 112.8
-1.4825943 -2.4586389 1.9412196 119
-1.1329226 -2.4774041 1.9442415 112.71429
-0.60155785 -2.4357381 1.9978962 13.2
-0.25321087 -2.4329112 1.9581305 12.071428
0.0062052906 -2.4644406 1.9793669 12
7.1724286 3.0927494 2.4378719 70
7.0814357 3.2641511 2.440167 48
4.3094296 3.6587627 2.457092 51
7.0533013 3.7979326 2.5217352 55.666668
7.7486858 3.8075483 2.7056684 47
8.0370026 4.9450545 2.477694 22.5
28.654556 21.16958 3.9286356 11
8.2175827 3.4235308 2.7707191 13
4.3217421 3.6162069 2.7890894 42
6.7270961 3.832674 2.8718123 33
6.890698 3.7018964 2.8952432 60
7.6706572 3.6417763 3.1270409 26
8.0418415 3.5868812 2.7482681 38
7.5169816 4.6718783 2.7985401 7
7.8066883 4.5232763 2.8446341 48.5
-7.221107 0.88206661 3.055815 54.5
4.3073444 3.6402147 3.1511877 40
4.3553348 3.5879302 3.1513412 18
6.8980517 3.8065031 3.3722796 38
8.4613895 3.6998188 3.3888621 35.5
6.8738756 3.9057918 3.3870015 12
8.422266 3.871264 3.4072199 10
7.7544303 4.6119604 3.3469989 26.5
7.6692581 4.757618 3.3527777 16
-6.2936425 16.014332 3.4263835 24
-5.9526114 16.010668 3.4135327 55
-5.5431204 16.116013 3.4212542 26.5
-5.1138344 16.154531 3.4167256 40
-4.7200208 16.297037 3.4357567 41.5
-9.1179504 1.1961603 3.3316696 36
4.3033743 3.6329813 3.5290229 10
4.3376551 3.5692577 3.5182092 30
7.700655 3.5850568 3.6145511 34
22.275963 -0.72766405 4.1694188 22
22.331093 -0.45444691 4.1908388 12
-6.4413505 3.8648319 3.7931218 61
2.1164234 17.650455 4.7127891 13
3.0287676 17.754572 4.7894449 7
2.4909184 17.946823 4.8088274 20.5
27.221209 21.099371 5.5227108 10
21.180023 24.450975 5.2927904 28
21.752262 24.49361 5.3545885 14
22.257008 24.447014 5.3987298 23
22.791529 24.421288 5.4491024 22
23.330853 24.388237 5.4996047 17
23.924662 24.398472 5.5617285 13
24.495676 24.371304 5.6174006 20
3.0613985 -5.5082507 4.2090158 43.5
3.1906724 -5.4289584 4.2151208 70.5
3.3842297 -5.3092971 4.2289157 70.75
3.6124682 -5.1066861 4.2207465 78.25
3.125155 -4.7388968 4.2585678 10
3.762718 -4.9299417 4.1991596 67.5
-9.5536337 0.99026966 4.0173869 39
4.3793368 3.5012548 4.3570213 9
-1.9719241 15.121669 4.7703142 27
-1.6249301 15.440991 4.8676319 24
-1.2410541 15.476317 4.8784719 11
2.8564551 18.096315 4.8675656 20
2.0326798 18.936939 5.0426717 22
3.6897662 18.802156 5.1003294 12
4.1331091 18.605066 5.0797954 26
1.3460349 19.274944 5.1013823 26
1.8187267 19.183241 5.0969958 13
1.1269647 19.639996 5.1883206 21
1.5983608 19.419458 5.1490569 11
0.52559686 19.952682 5.25037 12
0.89160228 19.836382 5.2313771 21
26.531883 24.510023 5.8491697 12
1.8836659 -5.4773531 4.2538195 18
2.0161691 -5.4365664 4.2664261 90
2.2051632 -5.3491507 4.269371 73.666664
2.5113854 -5.1872077 4.2747831 59.285713
2.7742419 -5.0196385 4.2726502 52.5
1.8509853 -4.9325933 4.3140368 83.5
2.0412033 -4.817946 4.2991991 65.599998
2.9476404 -4.9072876 4.2785521 65.25
3.1959677 -4.7216115 4.2819419 7
-8.140707 15.30403 5.188714 51
-7.5254951 15.508419 5.1871195 18
-6.5966773 15.502905 5.1047673 27
-6.4365845 15.66177 5.1387234 32
-6.2703595 15.811032 5.1700726 28
-5.992208 15.968687 5.1967664 40
-5.5857835 16.085236 5.2043514 42.5
-5.3239026 16.302507 5.2534413 31
-4.7684445 16.293211 5.2200942 25.5
-4.3248625 16.264296 5.1900167 23.5
-4.0321703 16.384226 5.2142463 27
-3.1768222 16.367662 5.1805301 42
-3.470026 16.763992 5.3114424 31
-3.0482082 16.817549 5.3166614 28
-2.7291634 16.835175 5.3154583 19
-2.4124649 16.864574 5.3193703 10
-3.8679292 17.07947 5.4217892 23.5
4.6190886 19.638397 5.378581 18
0.18896608 -5.810545 4.6603017 20
0.50303429 -5.8450336 4.7170887 78.333336
0.89088029 -5.8531332 4.7781024 89
1.2927343 -5.8810968 4.8799615 83.166664
1.5931518 -5.8982038 4.9661694 80.5
-2.2384539 -5.693079 4.8420963 84
-1.9393311 -5.7081914 4.7749195 49.5
0.25754195 -5.8041816 4.6601505 29
1.7911087 -5.680532 4.856113 11
1.8360689 -5.106091 4.929203 10.5
2.0872908 -4.7932186 4.7740846 12.8
2.5180221 -4.8096604 4.9855652 13
3.0410023 -4.8897882 4.7912951 20
3.3040299 -4.8645163 4.9113216 10
3.6795614 -4.857542 4.8509154 15.5
4.0787349 -4.8844194 4.8232732 19
4.3359365 -4.8666072 4.9547515 26
-8.6967793 15.642284 5.341959 8.5
-1.6368673 17.657005 5.5615296 14
3.0183489 17.738758 5.7476377 18
2.6183891 18.100079 5.8337584 28
2.8133495 17.875771 5.7764106 9
3.6543324 18.057457 5.8930464 19.5
3.9547029 17.82711 5.8458123 10
1.7360579 18.429131 5.8873 14
2.413692 18.287371 5.8797178 9
1.0739353 18.944044 6.0195007 11
0.84427321 19.088888 6.0563478 11
3.9819579 21.71439 5.8677802 17
18.220522 24.475105 6.5536647 19
18.576035 24.318045 6.5694742 21
18.990788 24.232944 6.6059237 10
18.067245 24.907377 6.6116385 15
17.644337 25.637148 6.6920872 13
17.943293 25.392321 6.6832371 10
15.687171 26.119322 6.5607028 11
15.975699 25.86833 6.5456896 6
15.062565 27.331011 6.7215347 19
0.49853918 -5.8551207 5.2487783 55.166668
0.88726318 -5.8753967 5.3268189 64.199997
1.7503115 -5.9172406 5.0241637 48
-2.5876682 -5.678452 4.9369831 96
-2.4372058 -5.7008047 4.9055872 89
-1.8302226 -5.7330394 5.2979107 64.333336
-1.5040629 -5.7395272 5.2297106 54.833332
-1.1192677 -5.7674656 5.186645 61.599998
-0.73913854 -5.7860847 5.1606779 64
-0.32866919 -5.8135977 5.1656833 59
0.082602054 -5.8233128 5.1831036 66.666664
1.7580554 -5.3843441 5.1336341 8
2.9084835 -4.8295374 5.2031851 10.333333
3.2558877 -4.8634357 5.4238625 10.666667
3.7642953 -4.8642616 5.1644683 17.5
4.0521574 -4.8625851 5.3322916 23
4.6204867 -4.9398818 5.1533232 25
-6.2561436 15.94592 6.153193 19.5
-5.3544612 16.262955 6.1882763 34
-4.4051828 16.414831 6.1786742 24
-4.0504141 16.298666 6.1170187 30
-3.6037109 16.701263 6.2413387 24
-3.2989471 16.801586 6.2654705 25
4.5995035 19.578829 6.4388237 16
0.62787342 19.756243 6.2586212 20
1.3855762 20.032213 6.3738322 20
1.6428263 20.115545 6.4113631 9
0.14229755 20.574112 6.5015073 7
20.683039 24.463511 6.860208 19
21.139359 24.384348 6.9061022 27
21.613789 24.316671 6.9571095 17
14.83634 27.727491 6.7734694 16
14.580083 28.079174 6.8146935 13
14.348183 28.489918 6.8703604 10
14.014806 29.165552 6.9682617 14
13.574363 29.646374 7.0201888 18
13.320683 30.070805 7.07969 13
13.051269 30.476423 7.1349492 9
1.2540606 -5.9110332 5.4369006 51.400002
1.6333076 -5.9412146 5.5658965 53.599998
-2.5905242 -5.7048669 5.5080409 79
-2.3212776 -5.7227583 5.431901 67.666664
-2.015255 -5.727345 5.342309 61.5
-9.0858765 14.706256 6.0741563 8
-8.4264154 15.975606 6.4010358 21
-5.9730349 16.098803 6.180943 22
-5.7862406 16.208992 6.20364 29
-5.5765276 16.255625 6.2029529 30
-5.0665288 16.779381 6.3509116 36
-4.8341908 16.758947 6.328217 37
-5.3606868 16.988676 6.4459829 10
-3.1174331 16.991499 6.32828 21
-2.8063622 17.08658 6.3537059 28.5
-2.5581462 17.622705 6.5439062 15
-2.3446662 17.697474 6.5672073 22
-1.9735117 17.379572 6.445106 25
-0.37201309 20.743723 6.54318 10
-0.11399042 20.693403 6.5327787 8
-1.4620676 21.591036 6.7956271 13
23.416056 24.452036 7.2218742 22
23.915863 24.362921 7.2760801 20
24.467709 24.31555 7.3450842 11
25.043119 24.278711 7.4199305 12
25.560957 24.174244 7.4767876 6
26.434549 24.387794 7.6352453 8
26.857706 24.169775 7.6625423 8
2.9952269 -6.0695214 6.200808 25
3.6408014 -6.095048 5.8955321 21
4.0554705 -6.1034279 6.1105242 23.5
5.2469182 -6.1829782 6.1465168 27
23.385588 -0.88799846 6.8144546 18
23.392015 -0.59945321 6.8274536 15
1.8031806 19.459602 7.299603 20
2.041393 19.395809 7.2895885 14
3.3923681 -6.1195254 6.43537 19
3.4979274 -6.135839 6.5025182 22
5.7007999 -6.2438655 6.4304514 26
-4.2738714 16.601414 7.2240214 23
-3.9544642 17.115705 7.4181414 23.5
-3.6315324 17.172777 7.4238911 13
-2.1346228 17.528807 7.5202894 10
1.198164 19.538704 7.2988906 21
1.640023 20.473515 7.6649604 12
2.8113055 20.539835 7.7593617 14.5
3.1954393 20.486921 7.767324 16
-1.3190436 23.872374 7.5128727 20
18.200314 24.409002 8.1289387 14
19.011786 24.218523 8.2131214 22
19.450354 24.153761 8.268425 15
17.587282 24.851414 8.1340113 16
17.867039 24.593384 8.1188602 11
17.320345 25.130207 8.156662 9
16.26487 25.588535 8.1092625 23
16.642342 25.478016 8.1372223 18
17.022291 25.366123 8.1662302 18
15.724167 26.150383 8.1636362 13
15.50977 26.534416 8.2236128 14
15.296391 26.931442 8.2878075 23
3.9560406 -6.2267604 6.8195596 7
4.5423684 -6.0508957 7.0428677 26.5
4.8259716 -6.0972171 6.8835602 33
5.3958621 -6.2411876 6.9584365 12
5.4864516 -6.1932716 6.9862871 14
4.877573 -5.743413 7.0542941 34.333332
5.1088009 -5.5252628 7.0714331 34
5.1872277 -5.4103899 7.0556126 29
-2.3637333 17.58091 7.5475073 31
-1.9211377 17.601902 7.547646 17
-2.0093334 21.220835 7.8599834 7
-1.4557028 20.906389 7.7431655 18
19.965345 24.172798 8.3547573 10
20.485689 24.185019 8.4415445 18
21.051886 24.236973 8.545187 14
21.678463 24.341436 8.6707745 13
22.127079 24.232796 8.7237673 23
15.059216 27.297672 8.3427677 19
14.586978 28.067753 8.4648933 13
14.859564 27.744814 8.4224939 18
14.364778 28.499544 8.5402956 16
14.116723 28.894567 8.6048965 13
13.866875 29.300077 8.6728592 7
13.606327 29.697712 8.7387686 19
13.357636 30.137585 8.8173018 14
4.4393258 -6.1409092 7.04182 18
22.649681 24.195156 8.8048639 16
23.298601 24.277365 8.9329338 18
23.755762 24.146673 8.9862108 15
24.308025 24.102369 9.0744171 11
13.114592 30.609636 8.9053564 10
12.855247 31.064245 8.9885025 13
12.575185 31.488438 9.0631332 14
12.300823 31.947458 9.1480312 14
12.00795 32.380089 9.2256908 10
-3.662307 17.14908 8.4721489 20
-3.4990907 17.448229 8.6055336 6
-1.454759 20.36783 8.7233076 25
-1.9923245 20.635725 8.8406954 10
-1.7243326 20.534203 8.7952318 10
28.205486 21.20718 9.262084 6
27.922403 21.54143 9.26577 5
-1.3541441 23.699976 8.7754793 17
25.116518 24.293491 9.2554169 5
25.647966 24.198875 9.3323421 11
26.391554 24.288704 9.4843349 9
26.821827 24.077021 9.5227547 9
11.74002 32.905048 9.3298044 13
11.456533 33.415573 9.4299994 11
11.122941 33.80481 9.4964514 11
10.779732 34.185421 9.5610542 6
18.525951 24.172026 9.7594824 17
18.890181 24.02202 9.7894049 17
18.276085 24.47094 9.7908115 9
0.74905831 24.887802 9.2585659 11
1.0571842 24.832977 9.2495728 9
16.407635 25.428621 9.7152767 8.5
-14.118753 10.217319 8.8609447 20
-14.022142 10.41269 8.8929062 18
34.271637 20.226034 10.330588 6
0.078397036 21.942404 9.4171391 10
-3.860358 22.349319 9.6144791 11
-3.5740767 22.348658 9.603837 8
20.650669 24.33367 10.209526 10
21.009697 24.141264 10.232834 10
21.508621 24.102289 10.323596 16
18.234617 25.060112 9.9376516 14
5.3030663 25.556303 9.7910509 13
17.969255 25.352844 9.9670677 13
-1.1675643 26.143675 9.6802473 8
14.190454 29.02356 10.376458 15
21.980267 24.022356 10.400073 11
22.509991 23.99494 10.502626 18
23.167301 24.087936 10.662132 12
23.685907 24.021761 10.755772 5
13.885609 29.319481 10.418904 11
13.601019 29.667768 10.480626 13
-15.282981 10.775864 9.4922161 13
-2.2938759 20.676844 10.119013 19
-2.0345762 20.697029 10.12405 9
-1.6614717 20.934361 10.235431 8
-1.2787741 21.119015 10.323945 9
-1.0151949 21.147316 10.338634 10
-0.75320441 21.232569 10.382557 11
24.228161 23.967922 10.858749 12
1.2899678 24.078934 10.375673 12
1.5974475 24.163883 10.426865 10
11.768122 32.982609 11.228884 6
-3.5371904 21.853796 10.729191 10
-2.6855602 21.725994 10.637773 9
0.045635864 21.926245 10.7372 6
0.32115936 21.997429 10.780419 6
0.59763712 22.03286 10.807712 22
18.484943 24.121431 11.431602 10
26.392904 24.229464 11.391257 7
18.218777 24.39884 11.457805 20
16.230059 25.517103 11.394438 18
16.554802 25.324024 11.397718 31
16.955057 25.242678 11.45318 16
15.730816 26.151682 11.501564 16
11.472219 33.463493 11.339552 19
11.164112 33.935822 11.447767 19
10.822861 34.33213 11.531004 8
19.340792 23.97452 11.579054 14
19.836315 23.970478 11.691156 17
20.313568 23.932878 11.790672 14
20.854481 23.957806 11.924958 19
18.187037 25.001244 11.635998 14
17.42606 25.257061 11.554813 16
17.838936 25.177355 11.616448 13
15.531938 26.566277 11.598641 14
15.309471 26.952316 11.683587 11
15.072577 27.323874 11.762683 13
14.816442 27.670658 11.831698 17
14.568264 28.042768 11.9121 12
0.93109745 23.478348 11.527382 7
2.1297569 23.66938 11.686772 11
2.7386591 23.751539 11.770309 9
21.38237 23.954163 12.049444 19
14.348919 28.4841 12.022188 7
14.084305 28.849501 12.100708 12
13.852039 29.295717 12.213477 10
13.583587 29.681089 12.301356 11
13.3346 30.125153 12.413969 11
-0.79157698 21.520369 11.896005 16
13.083666 30.584017 12.533001 8
12.779425 30.934946 12.608482 12
12.266041 31.928112 12.879282 8
-2.4894426 22.136385 12.250342 8
-1.6572119 22.236629 12.290567 14
-1.1076161 22.443914 12.40357 14
-0.54440427 22.470518 12.423941 8
-0.26191607 22.431803 12.408051 13
