# .PCD v0.7 - Point Cloud Data file format
VERSION 0.7
FIELDS x y z intensity
SIZE 4 4 4 4
TYPE F F F F
COUNT 1 1 1 1
WIDTH 1355
HEIGHT 1
VIEWPOINT 0 0 0 1 0 0 0
POINTS 1355
DATA ascii
-0.060990158 0.95571315 -0.10021096 59
0.049333036 0.91778421 -0.18476945 72.666664
2.4878745 0.95630246 -0.0058795754 176
2.8080039 0.82565945 -0.19991671 27
-4.4559178 1.0822861 -0.1734926 20
-0.12990296 1.0519133 -0.1948279 62
0.57271874 1.1846939 -0.080926575 140
0.69539553 1.1649383 -0.07139007 50
1.4257184 1.194115 -0.16787216 10
1.8876776 1.1764716 -0.024717702 106.33334
2.5755835 1.1014708 -0.089756303 20.666666
-0.64168692 1.3222771 -0.093579054 26
-0.54943937 1.3674965 -0.07260561 17.5
-0.21107733 1.3361843 -0.06398952 52
-0.084222794 1.3326162 -0.070062228 130.33333
0.13713497 1.292569 -0.13370007 113.66666
0.22021371 1.3579431 -0.0038269332 56
1.2926025 1.3690903 -0.12360989 34
1.7285032 1.2128053 -0.088026568 28.5
1.8676416 1.2527298 -0.087722145 39.333332
-0.52573198 1.5229146 -0.029284339 29
0.62211049 1.4160701 -0.016142979 91.5
1.1996164 1.4202861 -0.0080796657 26
1.2862386 1.4615427 -0.13756487 16.133333
1.435032 1.5979998 -0.0010750191 101
2.6910746 1.5332155 -0.11226302 36
0.32120228 1.6308963 -0.0025298542 128
2.7776065 1.6979814 -0.14202118 100
0.96597236 1.9458288 -0.10447803 74
1.1306657 1.8980294 -0.15528274 119
-1.2745006 2.1169 -0.048929755 123
-1.027324 2.1360741 -0.037713509 246
-0.26431006 2.0101094 -0.0076805558 13
-0.15381046 2.105206 -0.009877394 38
-2.7325158 2.3394561 -0.15614019 141
-2.0278633 2.329402 -0.12574825 82
-1.4860196 2.3544216 -0.07191585 53.5
-1.9972833 2.4131703 -0.16264915 109
2.3542223 -3.3075624 0.076512299 51
-0.45226738 -3.0374677 0.013334517 448
2.8203533 -3.0300241 0.037737671 34
4.040967 -3.0025706 0.18850963 158
0.86662823 -2.9080985 0.031131675 101
0.75522709 -2.7961369 0.11037131 48
3.3821123 -2.6960647 0.14575441 233
3.5239742 -2.6314251 0.13970004 236
-1.577374 -2.400274 0.044050697 74
0.26635438 -2.4292212 0.10710783 197
1.1299251 -2.5580754 0.091362119 84
3.5152433 -2.5396068 0.16644925 95
3.6464906 -2.4950616 0.15067498 110
-1.5570551 -2.3491976 0.040461443 37
-0.52488703 -2.220789 0.081300408 42
0.054306496 -2.3250537 0.041273125 180
0.22935063 -2.3949802 0.036561657 42
0.43247321 -2.3991861 0.046516608 84
-1.4700546 -2.1168466 0.12588985 23
-0.86712581 -2.1126087 0.061223324 219
0.84457552 -2.0754428 0.039348904 29
-1.7382017 -1.9247665 0.17281826 233.66667
-1.4799538 -1.9692092 0.045309499 163
2.8632522 -1.9520384 0.041699126 50.5
1.1407447 -1.6782277 0.093577214 61
1.4740176 -1.6718765 0.098785117 25
2.9797182 -1.6539559 0.090129822 40
3.0277264 -1.6930765 0.1884516 170
-5.7706304 -1.5880319 0.19790295 78
-2.4284163 -1.4067872 0.19556715 92
-2.3404808 -1.4225141 0.18127137 186
-1.6880354 -1.4710633 0.1204309 104
-0.24473429 -1.4082514 0.095825724 44
0.19575623 -1.4439201 0.078431554 100
0.29493028 -1.4433609 0.12868525 65.400002
0.50199854 -1.5023757 0.099482082 134
0.72141993 -1.5484149 0.10304843 38
0.93167537 -1.5815449 0.096096732 59.666668
3.0659118 -1.4966433 0.12596059 94.25
-1.861425 -1.2990437 0.11091624 78.199997
-1.7372662 -1.3547245 0.14634721 169.66667
-1.4082276 -1.2323502 0.080708735 69
-1.0844125 -1.2479726 0.045607116 52
-0.51212841 -1.347387 0.10035221 37.333332
-0.37705904 -1.3607097 0.070861951 111.5
3.0785973 -1.3041731 0.10284863 93
-5.7685447 -1.1677239 0.16364546 253
-2.2306271 -1.0723312 0.038055841 51
-2.1197128 -1.0809213 0.014239698 36
-1.8174236 -1.1258401 0.027823428 40
-1.2248529 -1.1973156 0.050328873 146
-5.7948737 -0.98743862 0.11336817 269
-3.3690941 -0.89398897 0.064901054 109
-2.8283193 -0.98990577 0.089884885 76
-2.0277433 0.18179318 0.052466389 113
-2.0177021 0.35859361 0.097076543 76.5
2.9348834 0.55858308 0.071695127 88.714287
-5.1207938 0.78066504 0.059438054 327
-4.5465589 0.64286971 0.10855183 194
-4.3994956 0.74821222 0.10074794 162
-0.094951652 0.70908624 0.15731989 88.5
0.12791508 0.7313354 0.12385388 80.916664
0.33290374 0.65994561 0.082531072 48.5
0.40776992 0.65025079 0.093644217 36.25
2.8583546 0.71359116 0.095625967 151.83333
-4.5852122 0.97682554 0.030029316 113
-0.28146183 0.83529973 0.10574226 76.666672
-0.061002977 0.92091167 0.092230231 63.5
0.076590747 0.91910076 0.048246369 67.5
2.8788114 0.85362113 0.097296737 141.39999
0.70886803 1.1258656 0.043304056 17
2.8656449 1.0034826 0.17930709 328
-0.67740941 1.2337605 0.11659249 15.5
-0.58904451 1.2851626 0.14420657 17
0.71316683 1.2256387 0.016907718 68.5
1.5559982 1.3378721 0.0073808888 316
0.5423333 1.5785987 0.12402123 29.25
0.6907447 1.5523264 0.014826788 49
0.82240534 1.5625836 0.10284319 107.83334
1.6613386 1.5313463 0.072155416 84.5
0.24679017 1.6668211 0.10000578 99
0.59973955 1.6681834 0.18666066 21.5
0.7629652 1.674378 0.12924124 47.333332
0.84448707 1.7234815 0.16872659 20
3.0856938 1.6663836 0.026119549 66.5
-1.1909826 1.9004402 0.10410094 119
0.30114704 1.936115 0.12383507 17
0.69252706 1.9146175 0.177461 103
1.0577264 1.8147494 0.086251535 103.5
3.0251513 1.8072762 0.021458453 50
-1.2390531 2.1083016 0.15589111 221
-0.24442165 2.1006119 0.083045512 6
-2.1356101 2.3206739 0.059211079 295
-1.6138958 2.3748543 0.087768525 107
-6.4632335 2.4646242 0.075037464 47
-2.8600435 2.4341345 0.18267858 19
-2.6999981 2.4359534 0.011847782 72
3.7275646 4.0630555 0.09807498 49
2.8371427 4.8341961 0.1826566 308
-0.31518772 5.5766745 0.19466335 422
-0.89672714 5.6895237 0.17465122 97
-10.94222 7.9037552 0.12265071 108
-8.8976192 -3.9006884 0.31893355 14
-9.0834913 -3.2107503 0.28028312 32
3.6919801 -3.2635021 0.2771883 14
1.7432915 -2.8599524 0.3517752 65
-7.3332219 -2.6847107 0.3419739 182
0.76057673 -2.7538269 0.30783859 44.333332
0.80969 -2.7213261 0.3692286 85.666664
2.1559465 -2.6393859 0.29477823 319
2.2504613 -2.6353962 0.32267767 81
3.7216961 -2.7074473 0.3310433 84
3.818697 -2.6093016 0.2501862 227
-0.80673796 -2.5617657 0.38395652 10
0.88184881 -2.5088668 0.29188085 91.25
1.0868703 -2.5737708 0.32675439 108.4
3.3545351 -2.5620263 0.32864791 241.5
3.4642973 -2.5628655 0.37380823 272.66666
-5.3640647 -2.2859609 0.22483256 118
-5.6291332 -2.1481218 0.2291708 103
-1.4281195 -2.102807 0.30192006 24.416666
-1.6466249 -1.9808302 0.32494047 48.099998
-6.821867 -1.4844491 0.32896587 112
-2.4802182 -1.4476928 0.26973641 90.75
-2.3291309 -1.475013 0.30867672 219
-1.8856457 -1.4264299 0.28404298 56
-1.7238225 -1.4976733 0.32019928 28.25
-1.8449727 -1.3304172 0.27251512 15.333334
-5.7929997 -1.0458988 0.39392275 290
16.019148 -0.65425539 0.28867069 48
-3.3863277 -0.43858537 0.25412527 23
-3.0888906 -0.31799462 0.38190693 26
-2.0055385 0.19152927 0.39625254 108
-1.9370983 0.37228173 0.23673648 42
-2.0815272 0.42934608 0.35725272 17
2.8882697 0.58037013 0.32222807 183.11111
-0.22247775 0.67866844 0.25728741 10.5
-0.090729281 0.67651004 0.30363944 13.966667
0.078476928 0.70118666 0.27413923 26.6
0.21833226 0.66771615 0.31795067 18.25
2.8360262 0.71155447 0.22913446 167
-0.0080643892 0.85042053 0.21492454 66
2.839 0.92438877 0.36942035 206.2
2.9366808 1.0730944 0.3443127 294
0.88083589 1.5623747 0.24610977 14
0.34982619 1.7067959 0.24683882 24
0.88161927 1.6336857 0.21538213 38
-1.2462345 1.9730237 0.36880887 91
1.1283031 1.9670638 0.32525894 27.5
-0.97859013 2.1549523 0.36090347 184
-1.8350302 2.3401248 0.21663506 131
-1.5798234 2.3441837 0.39593422 12
4.0964422 2.3577151 0.26944965 141
-6.8757529 2.4761987 0.35021576 308
-6.4000707 2.4098256 0.31945032 291
-1.6356248 2.4069667 0.24403378 111
-1.4802413 2.4202967 0.37361789 113.5
-0.46679285 2.4396052 0.32972676 69
4.0672727 2.4674776 0.23794477 174
3.7000782 4.0819101 0.30718651 32
3.2046671 4.3561559 0.20562185 197
2.6112683 4.9659767 0.34888837 315
-0.53336418 5.5455794 0.24271463 138
0.64663577 6.5945415 0.27000615 15
0.18091816 -7.7357979 0.51471823 53
2.2212501 -7.2834382 0.59159797 59
-1.130093 -6.7039557 0.54509026 208
-1.1962588 -6.282599 0.55588943 143
3.6649966 -3.016943 0.40982282 106
-8.0793533 -2.9375899 0.51435113 170
1.7204623 -2.874732 0.46768695 22
5.4809504 -2.9349093 0.52782494 29
-0.96120733 -2.6320093 0.43064874 23
0.96120834 -2.6646693 0.49845544 82
2.1061497 -2.7292728 0.48188293 177
2.3592937 -2.6734455 0.57699084 144
2.6415493 -2.6588755 0.49635196 15.333333
3.3500924 -2.6221433 0.54494709 249
3.4501417 -2.6339455 0.52056378 257
3.7339048 -2.7311039 0.5382511 128.5
4.4010358 -2.6261303 0.40487745 312
4.5484428 -2.50488 0.43645823 178
4.6267772 -2.4875805 0.46212882 10
-5.48174 -2.3422205 0.48257688 267
7.2500849 -2.297384 0.59894603 111
-1.6553468 -2.0141854 0.43786418 11
-1.4431055 -2.0828433 0.44059843 14.5
-1.6531649 -1.966666 0.43028328 130
-5.8457112 -1.6799221 0.49542367 334.5
-2.4524319 -1.6300561 0.58406031 152
-2.4735365 -1.5299391 0.47023845 95.125
-1.7316337 -1.4839841 0.42616078 8.916667
-1.8528848 -1.3869522 0.42880234 7
-6.8819065 -1.0782613 0.59049678 131
-5.8081708 -1.0441222 0.45633221 229
-5.691813 -1.1807257 0.41924852 303
-5.8285856 -0.90544283 0.4043577 271
2.8450625 -0.4313122 0.4967871 317
2.8405054 -0.18474121 0.40246776 250
-2.086339 0.29385665 0.57337737 41
2.8841026 0.55053669 0.48385867 146
2.7608321 0.6999076 0.48517835 103.875
2.8280406 0.62708795 0.55377305 176.5
-1.1317443 1.9644866 0.49624515 105
1.1416124 1.9482474 0.41163996 18
-1.0324136 2.1929598 0.50446147 118
-7.3807702 2.2628226 0.45854777 90
-1.8584889 2.2627091 0.59337372 39
-1.273964 2.2402363 0.51898718 86
-1.857375 2.4016933 0.44416094 193
-6.8780837 2.656569 0.43964905 14
5.7793069 3.8640666 0.55568284 211
3.5580916 4.1628742 0.50437951 73
3.7165542 4.0759859 0.5032537 20.75
4.7856517 4.0053439 0.44773504 28
4.7698479 4.378901 0.43902558 6
3.0487962 4.4247189 0.4577406 34.5
4.7654018 4.4327784 0.56277096 44
-0.35968095 5.5682502 0.46254653 532
-0.7087937 5.6797647 0.49731603 519.5
-0.39892417 5.6070204 0.48548925 455
-0.93387645 5.8015161 0.47455212 30
-1.9840803 6.9772372 0.54706031 298
-0.65505582 -7.6047902 0.64829278 187
-0.48872107 -7.671875 0.78908098 33
-3.315403 -6.8005118 0.60430151 207
-3.080595 -6.9808431 0.6375044 220
-1.112071 -6.656693 0.71628547 244.5
-1.2384133 -6.5807047 0.64571905 254
-3.9343874 -6.1115952 0.71383578 111
-2.2450616 -3.1570451 0.74966556 59
-5.594615 -2.8919864 0.74487865 339
-2.5700953 -2.8211188 0.68170965 137
1.6855593 -2.8852017 0.70988125 21
3.7695851 -2.8518915 0.74185228 104
2.0743093 -2.7834792 0.69247615 161
2.2664313 -2.6435857 0.66997784 108
2.6386499 -2.6478271 0.64534664 13.75
4.4809928 -2.6161087 0.63158453 172
3.6694334 -2.5164378 0.78677398 106
-2.3435633 -1.6929111 0.60346794 29
-5.7925348 -1.0801218 0.66647315 129
-5.9287205 -0.94087082 0.73116982 35
2.9718149 -0.33080542 0.74981225 146
-3.3356297 -0.12489952 0.73759592 44
-2.1134396 0.33803964 0.69484693 27
2.8966539 0.71586639 0.69432479 36.666668
3.011029 0.76126665 0.75830442 23
2.782582 0.8760463 0.64989585 15
2.9123778 0.90556681 0.72805786 76.285713
-1.0742899 1.8814538 0.6751889 47.5
-1.2500569 2.1587076 0.7953859 28
-1.1979871 2.1420877 0.64144582 140
-5.3663006 2.6680338 0.73241043 104
3.5854311 4.1530824 0.66546369 55
3.7177293 4.0911856 0.77057678 18.666666
3.1455274 4.3766561 0.73774368 73
3.3038869 4.2836914 0.68519187 27
3.4932938 4.249661 0.73782575 25
3.058732 4.4044075 0.62280697 37
1.7130816 5.0974269 0.67143625 69
-0.36055225 5.5900173 0.7542007 200.5
-0.85764897 5.7197027 0.77056938 288
-0.31392616 5.6436081 0.75758684 337
-4.2950664 6.5096979 0.77765232 100
-0.5226922 -9.4629164 0.94485158 334
-0.31187361 -7.7199354 0.95907462 106
-3.1689157 -6.8957467 0.87447596 211.33333
-1.4634624 -6.645586 0.98637319 221
-1.297278 -6.763278 0.95853728 161.5
-1.1339533 -6.6002922 0.84381884 360
11.476134 -3.4290357 0.94256276 195
11.534737 -3.3268733 0.93245471 213
-2.4200497 -3.0072634 0.84804046 106
-2.3997257 -3.0201044 0.89397377 35
-7.9615412 -2.8473833 0.87971413 102
-2.6274211 -2.808249 0.80984408 237
1.679376 -2.8924682 0.94739491 15.333333
3.8337948 -2.8166664 0.86755311 8
5.4696803 -2.9310246 0.83443499 39
11.602037 -2.9051456 0.94606596 183
-2.5931976 -2.751776 0.89122188 37
2.1938627 -2.7481997 0.83470422 5
2.2908833 -2.7306354 0.87852228 7.5
3.5068407 -2.5350156 0.84232998 112
2.8523619 0.84767443 0.8484779 19
6.2596412 3.6760838 0.92626393 132
3.5777473 4.1297169 0.90115094 22.666666
3.6914608 4.1052547 0.93761837 28
6.4093485 4.0837812 0.93699634 241
3.0499668 4.4214211 0.88093078 33
5.3476892 4.4536424 0.84847164 113
5.5276442 4.4421406 0.84480512 170
2.7037444 4.9419909 0.85111529 514
-0.30716562 5.6022468 0.88918585 283
-2.0162854 7.0214567 0.922171 170
-1.9912384 7.0721798 0.91317779 16
-7.1834273 7.6962514 0.99608552 54
-0.32863709 -7.6982083 1.032472 25
-3.1639707 -6.8718157 1.0106066 33
11.465961 -3.5042629 1.0460202 126
5.4550405 -2.9253464 1.139781 62
2.1395645 -2.7478998 1.0151529 9
-11.90988 3.8486249 1.195397 222
6.6561532 3.9977834 1.1616883 46
6.1515431 4.1918764 1.0063047 390
6.4220796 4.0862241 1.0034741 258
6.6927366 4.0396414 1.1555052 74
6.1407394 4.3761921 1.087855 291.5
6.1840076 4.4321003 1.128347 349.33334
3.180476 4.7942405 1.1682278 194
2.6489761 4.9725947 1.0836093 363.75
2.8029015 4.9004679 1.0635835 280
3.165158 4.8263278 1.0662527 314.66666
3.2027419 4.8195353 1.1281631 214
2.6364954 5.0221519 1.0800951 214
-11.489564 5.24681 1.1920934 20
-0.87460327 5.714623 1.1002026 131
-0.77824694 5.7100716 1.1989751 431
-0.29895926 5.6429801 1.0862957 279.20001
1.5048615 6.2456121 1.09535 235
-4.3061604 6.5180883 1.1685656 164
-7.2632608 7.4142361 1.118584 119
-7.079288 8.3989687 1.1593488 15
-6.7245889 8.353775 1.0295057 18
-6.7865419 -12.140743 1.3991933 212
2.7814932 -10.78862 1.3763654 99
2.9201434 -10.28347 1.3402754 142
-0.83518952 -9.717907 1.378776 325
3.728512 -9.6494503 1.3232365 126
-0.10794443 -9.5513792 1.3848017 346
-3.5206096 -9.1031246 1.2332888 365
-3.350724 -9.142478 1.33729 357
-4.0671968 -8.6591787 1.2015783 348
5.2063961 -3.7150049 1.3716108 39
5.2540836 -3.497818 1.3150545 95.5
5.4468541 -2.9539218 1.3162668 96.5
6.6582508 4.0628848 1.2878331 251
6.1591311 4.3503742 1.3246469 323.5
6.1947031 4.4800563 1.3065145 220
3.204582 4.7968364 1.3943342 49
2.781862 4.9123073 1.3685266 311.5
3.0467284 4.8736324 1.2185622 370
3.2017405 4.8614902 1.3973335 233
2.6347656 5.0186157 1.338285 240
-0.89280707 5.7365108 1.3531239 205
-0.40573615 5.6376238 1.3394551 155
-0.30781639 5.6641989 1.3462933 250
4.3863373 5.7799129 1.3688056 7
4.8920474 5.671998 1.3756392 141
1.5433021 6.2284284 1.3073615 305
-3.8710895 6.4234667 1.319226 32
-2.0316958 7.0286064 1.305549 109
-1.9987463 7.0536737 1.2955524 30
-6.3269525 8.1383448 1.3686219 91
-0.73938686 -9.7049208 1.4754479 197
-0.55239558 -9.4435596 1.4082818 286
-2.9566674 -9.2225657 1.5374697 340
-4.0694795 -8.6350727 1.5092334 233
11.292931 -4.3193216 1.5231943 105.5
11.358683 -4.0506778 1.5621485 91
5.1633749 -3.6561162 1.4843501 89
5.2250867 -3.678638 1.4928236 108
11.465734 -3.5817993 1.4565849 156
11.494656 -3.3573475 1.5332663 242.5
11.576377 -3.0523484 1.4522744 235
5.4445329 -2.9560425 1.4464604 257
11.62165 -2.8197381 1.5433354 143
-10.36202 2.2506294 1.5334187 59
13.469794 2.5563049 1.586967 70
6.5228086 4.112823 1.5838374 267
6.6839972 4.0565348 1.5212263 112.6
6.1539059 4.3036175 1.4837325 302.5
6.1811414 4.4471865 1.5082606 257
9.3519516 4.6256895 1.5772175 54
2.6256025 4.9766855 1.4623191 295
3.1788547 4.8354468 1.472993 292.33334
6.3000622 5.1376443 1.4018158 70
4.2550082 5.5929618 1.5262254 258
5.0637879 5.4372606 1.480592 128.25
6.1315093 5.4692965 1.5652866 12
-0.88656032 5.7304044 1.4038506 29
-0.28107858 5.6842408 1.4689398 201
4.6513338 5.7983384 1.4012903 5
2.803997 5.8456912 1.5724006 111
1.9736559 6.158186 1.4948784 75
1.3936188 6.538116 1.4500245 21
-0.015183866 6.6785693 1.5083488 87
-7.0676498 8.1646004 1.5623839 129
-10.680943 9.2222033 1.447962 11
1.1746981 -13.883556 1.6155331 73
-7.2365251 -12.21678 1.6553075 8
2.8566189 -10.447143 1.6438191 168
-0.81536025 -9.684269 1.6549946 315
-0.75883669 -9.679882 1.7492534 392
-0.040588494 -9.5342283 1.7104709 254
-2.6917984 -9.2743492 1.7895982 122
-2.4206095 -9.3383474 1.6345748 348
-4.094274 -8.6435146 1.6960249 246
-3.8720491 -8.6687641 1.6497219 166
-13.576854 -3.1075783 1.6764729 48
11.630615 -2.9083564 1.7023802 179
15.195959 1.4462039 1.6744244 160
6.7143936 4.0425115 1.7340935 26
6.1482153 4.3104486 1.6833732 261
6.1906767 4.4992113 1.7485042 231.5
9.5293522 4.4549279 1.6519605 138
9.6602306 4.4448128 1.6459348 129.5
9.804616 4.4102011 1.6286184 115
2.6529617 4.9562387 1.6548908 446.25
2.8840566 4.935565 1.7965046 362
3.1630807 4.8446112 1.7457376 336.75
3.211869 4.8399625 1.7266078 115
-11.617248 5.0601897 1.7825347 103
6.3216314 5.1585307 1.621171 218
5.6118293 5.3259578 1.6223848 286
4.468842 5.5785694 1.6242496 255
5.0467005 5.4649153 1.6871006 150
6.5037723 5.5144563 1.6195821 7
-0.88428926 5.7433181 1.6895537 154.66667
-0.42443991 5.6582761 1.6600945 93
-0.34364867 5.6476517 1.6722761 331
2.039722 6.2032123 1.6712698 17
0.71004087 6.4333286 1.6068766 48
-2.034162 7.0745945 1.6980118 27.5
-7.2085929 7.5354915 1.6751688 53
-7.1766047 7.508215 1.6438652 6
-7.2126822 8.1374321 1.6874222 96
2.7069895 -11.076383 1.959618 115
3.1970389 -10.284549 1.9006433 163
3.2789686 -10.274021 1.8853976 235
-0.85462326 -9.6722765 1.8526332 107
-0.01561904 -9.5517073 1.86089 129
0.0059016263 -9.5629187 1.9339001 88
-2.030534 -9.3248205 1.8637153 63
-0.58600289 -9.3083954 1.8865443 46
-3.2551482 -9.1547899 1.8345687 55
-1.2456659 -9.1767721 1.801425 43
-2.5433302 -8.8447533 1.9927366 63
-7.1733766 -8.6117153 1.886609 136
-3.1538393 -8.7038755 1.9115825 44
-11.711417 -4.8411493 1.8005792 67
11.302419 -4.2818031 1.8206705 86
15.964387 -0.86386108 1.913898 15
15.975066 -0.79551196 1.9323159 45
-12.414837 1.3341458 1.9496132 47
-12.196648 2.2682369 1.8742145 234
-9.7780209 3.5816357 1.9924431 64
9.6753387 3.7182868 1.9948769 168
6.6541033 4.0758104 1.8643509 180.25
6.138526 4.2907209 1.9883024 277
6.1669655 4.4629707 1.9134783 252.66667
6.200388 4.4928579 1.9398985 258.5
-11.564618 4.6126485 1.9572777 26
-11.790111 4.917778 1.8297682 12
2.6939967 4.954247 1.9551864 393.66666
5.0449343 5.4238567 1.9584323 110
-0.86026186 5.7420111 1.8757123 301
-0.30056772 5.6670952 1.9414817 233
5.0139055 5.6041565 1.9122351 56
-10.447115 5.8005509 1.9320353 26
6.4922171 5.8981142 1.9260271 11
-10.399773 6.0190639 1.9043622 49
-9.7814913 6.3254256 1.9569248 71
-9.1727171 7.1188507 1.88228 35
-9.752039 7.5578208 1.9308826 24
-9.8081446 8.05972 1.9385582 24
2.1779773 -14.084078 2.1850352 65
4.3384609 -10.788974 2.058614 43
2.8935103 -10.30442 2.0821104 150
-0.031338692 -9.5052881 2.1289666 226
-0.10520446 -9.3923759 2.1919038 21
-3.981952 -8.6061678 2.1527209 95
-3.1489251 -8.797924 2.1353507 6
-3.8531604 -8.5496998 2.1025224 30.5
11.218691 -4.6264739 2.0645199 14
-12.082317 -4.4701538 2.1904254 22
11.242537 -4.5216756 2.136591 33.666668
11.309058 -4.3454342 2.1867938 29
-13.545341 -3.8521173 2.0304565 177
11.589529 -3.0092931 2.1383247 180
11.583431 -2.8894529 2.1302383 191
11.628495 -2.8247638 2.0717866 138.25
-13.074909 -1.8109601 2.1490729 21
-11.727371 -1.8987434 2.160727 53
-9.9353266 -1.8159769 2.1623063 94
-9.4621029 -0.64370835 2.1656904 45
-12.543242 -0.50827408 2.146039 17
-10.516715 -0.00015750527 2.170716 89
-10.255398 0.8121351 2.1306212 42
9.988349 0.91665989 2.1988194 92
-10.139083 1.0623832 2.1887178 61
-12.373711 1.544616 2.0416102 4
-10.595728 1.4882332 2.1200101 84
13.023794 1.4928418 2.1911814 36
-12.480036 1.8470066 2.0740552 11
-8.9815292 1.9321116 2.1234202 74
13.61482 2.4947445 2.1634448 65
-12.02126 2.8602455 2.1084454 34
-10.571022 2.8564949 2.0661452 39
-8.2560959 3.1491234 2.1132627 263
-9.7544661 3.9715357 2.0142951 54
6.673295 4.0818295 2.0360217 163.60001
9.7573051 4.0365882 2.057049 193
6.1448874 4.3695726 2.123199 270
6.186398 4.5069776 2.1791241 195
6.2014389 4.5832968 2.1736248 205
3.1703537 4.7892265 2.1169679 85
2.6864598 4.9526124 2.0417097 228.66667
3.146739 4.8565588 2.0584171 197
3.2061143 4.8092008 2.0048153 41
6.3380284 5.1846566 2.1575129 86
-7.7957153 5.3210263 2.0225291 108
-0.85193682 5.7571664 2.1373835 222.33333
-0.76560563 5.7499475 2.0276928 320
-0.29937947 5.6529102 2.1162789 246.33333
6.5399122 6.3281517 2.0554056 14
-3.9165113 6.4456654 2.1386657 17
-1.9759216 7.053195 2.0986483 192
1.3128176 -13.906264 2.3046381 174
-7.3547077 -12.001328 2.3353782 63
2.3703265 -11.209576 2.3419387 56
6.6281595 -11.025237 2.3390145 137
0.70384818 -10.734286 2.2867203 82
1.8799918 -10.72852 2.2966883 176
2.9800484 -10.225767 2.3414631 193
-5.3685675 -9.8893881 2.2485101 45
-6.413105 -9.4097757 2.2632012 50
-0.14660341 -9.4412756 2.3532143 68.5
-0.49792486 -9.2875271 2.3666229 16
-5.4157791 -9.1086578 2.3720174 254
-3.8945293 -8.5640726 2.309072 34.5
-7.1613183 -7.9351282 2.3471229 196
-10.507644 -7.531074 2.3388159 34
-14.011889 -7.2344232 2.3505106 85
7.5370655 -7.0600953 2.3913085 8
-10.409135 -5.6201935 2.3718274 52
-12.280871 -5.3814931 2.3091533 17
-10.179939 -5.2033629 2.2683957 77
-10.090481 -5.0452261 2.3848493 155
7.8712459 -5.0838699 2.3629904 17
11.274394 -4.3535066 2.3182449 35
11.34555 -4.0037904 2.2068925 226
-9.8693409 -3.9739878 2.3702428 149
-11.952204 -3.6242151 2.2541373 42
-9.726306 -3.30581 2.2721488 139
9.4559679 -3.2414196 2.3098311 23
9.7794828 -3.3304045 2.3456774 27
8.9535818 -3.1334767 2.2643716 31
9.0453148 -3.111382 2.3297157 30
9.4607201 -3.0509884 2.3139372 72
11.646027 -2.87833 2.2311752 231
13.447866 -2.9437811 2.338094 38
-12.813709 -2.5719669 2.2170203 38
-9.5074835 -2.4517882 2.2629509 136
-9.4621134 -2.2202141 2.2608118 227
-9.7405529 -2.0513098 2.2092147 100
10.246744 -2.0486298 2.287739 74
8.5643063 -1.653301 2.3495934 83
-12.980249 -1.3187071 2.210403 142
-12.910809 -1.1315665 2.2434645 169
-12.895937 -0.99945968 2.2181921 130
-12.237971 -0.31561595 2.2165742 36
-8.6629248 1.1551378 2.305557 110
6.6611238 4.0821223 2.2859035 156.25
6.1544023 4.3533444 2.3475275 284.66666
6.1716251 4.4928608 2.3359089 227.33333
2.6494138 4.9784112 2.3212678 313.33334
3.1011724 4.8749723 2.3494668 232.5
3.2227881 4.8589492 2.3788965 16
2.6456556 5.0489082 2.2895801 243.5
5.0392632 5.4782996 2.2232029 137
-0.86087888 5.765821 2.3773863 247
-0.67055303 5.6908803 2.258208 265
-0.32372254 5.6463461 2.3195724 325
5.0162802 5.634357 2.3410051 70
6.5288258 6.3425469 2.2430465 10
2.9407244 -10.210728 2.5371742 239
-0.16983353 -9.430932 2.5836649 63
-6.795876 -8.7658186 2.4793475 138
-3.9449227 -8.5175629 2.5247042 42
-7.0755672 -7.9485874 2.5647056 224
-10.096302 -7.621665 2.4987257 143
7.412128 -6.5628176 2.5208728 4
-13.98999 -5.9956923 2.4033575 101
7.658318 -5.6685729 2.5475855 117
7.9212999 -4.5161605 2.5348084 211
-9.926302 -4.1535888 2.5820394 128
-9.3097563 -1.3772984 2.4931314 153
-9.0482769 -0.37750012 2.5689197 173
9.1294632 1.0820462 2.4877179 244
9.3458366 1.5658619 2.5215368 28
-8.5279121 2.0863109 2.5292585 169
-8.2643595 3.1611035 2.5662029 180
6.6976342 4.0776758 2.4688699 99.800003
6.1609478 4.4158773 2.5591202 209
2.5774603 4.9858923 2.4400713 245
2.6612432 4.9859886 2.5771289 365
2.844187 4.9170027 2.4011474 255
3.1657588 4.8538642 2.5187984 165.5
3.2089427 4.8451924 2.4069667 141
2.64993 5.0134125 2.4057944 345
-7.8071661 5.3555136 2.5001082 95
5.0467253 5.5175514 2.4174418 92
-0.83864975 5.7815142 2.5316634 259
-0.78902566 5.7479882 2.4220583 281
-0.30671334 5.6665249 2.5129268 216.8
-3.8273027 6.4432578 2.5522423 106
6.5786362 6.4041429 2.5414345 12
5.3456898 -11.053038 2.7394016 155
2.9950197 -10.193488 2.6698749 224
-0.13361797 -9.3759594 2.6599319 35
-1.5853139 -9.0250044 2.6584952 35
-3.9892533 -8.5515671 2.6898603 35
-7.4322567 -7.8955116 2.7896395 203
-7.1771078 -7.9447527 2.7478273 171
-10.579467 -7.3887482 2.6436708 108
-10.36165 -5.9396505 2.7036943 98
-8.936799 0.17067164 2.7053237 177
-8.6741762 1.1704081 2.7658818 87
-8.2620335 3.2559249 2.6152208 141
9.7118702 3.8402779 2.7529023 161
6.5390358 4.1284823 2.7030337 193
6.6589694 4.099247 2.714421 165.66667
9.7513475 4.0774693 2.6151044 223
6.1332307 4.3580675 2.7672827 220
6.16995 4.4808116 2.7491941 221.66667
6.2169065 4.6548705 2.6359954 139
2.6439824 4.9655995 2.7061367 276.5
2.933851 4.9481459 2.7309456 290
3.1211109 4.8768001 2.7262704 279.66666
3.2040067 4.865448 2.7287982 113
2.6334958 5.0186305 2.6799548 251.33333
5.0423417 5.5342846 2.6706665 161
-0.86393809 5.7757912 2.7223825 154
-0.45692062 5.6908584 2.7809627 28
-0.27699891 5.699512 2.7298591 186.66667
5.0049868 5.6544628 2.6884942 49.5
6.5107617 5.6695843 2.7098916 16
-4.3080821 6.5532598 2.7499645 162
-3.8141105 6.4489088 2.7511141 216
6.561801 6.4069018 2.74806 14
-3.7567928 6.786736 2.7460291 131
-1.8941362 7.1378155 2.6281443 93
6.3677387 -11.221564 2.9919734 138
6.3978138 -11.039224 2.8771002 94
2.2783186 -10.802543 2.9207327 127
2.6987133 -10.878777 2.8747447 142
2.9624617 -10.216428 2.8521187 170
2.9290388 -10.175418 2.9134941 190
-0.18532109 -9.4477863 2.8103392 75
-0.28960443 -9.2906742 2.8526287 16.5
-6.1963325 -8.8921804 2.8780794 135
-7.112977 -8.7090511 2.9352767 147
-6.7998466 -8.7696476 2.9448535 139
-3.9751713 -8.5054855 2.8818898 19
-8.9506454 -7.8326621 2.8108175 168
-7.1852026 -7.8993044 2.9235022 146
7.1468511 -7.8995514 2.9025905 80
-10.530807 -7.4652977 2.9603508 17
-10.195226 -7.5477848 2.940455 130
7.3875656 -6.9732351 2.8429813 112
7.693224 -5.4214172 2.9946578 156
7.9044976 -4.6781383 2.8031051 23
-9.9429045 -4.2667522 2.9881604 153
8.681344 -1.1326697 2.8154802 202
-8.3583364 2.7831111 2.9159839 213
6.4804711 4.1422992 2.8867528 168
6.6767011 4.0865364 2.8972023 85.25
6.1598554 4.4813662 2.8791075 236
6.2669921 4.754035 2.898838 144
3.1480441 4.8661041 2.8561294 268.75
2.6258025 5.0516634 2.8800845 209.5
-0.93151832 5.7799129 2.9995358 17
-0.48965114 5.7160258 2.9258559 277
-0.33319277 5.6594257 2.8882756 298
4.9928236 5.7310119 2.8626406 8
5.004982 5.8145504 2.8536844 6
1.5715334 6.240375 2.9182281 77.5
-2.0133693 7.0486646 2.9415271 64
2.903579 -10.184969 3.0686085 207
-0.26430497 -9.3238993 3.1252806 29
-0.075515643 -9.3155899 3.0448034 16
-1.6060745 -9.0202675 3.1339438 34
-6.8393393 -8.7486639 3.0818083 124
-4.0074282 -8.4757853 3.0229797 8
-3.9452853 -8.4985781 3.1208224 22.5
7.0592999 -8.2991161 3.1651595 45
-7.1008415 -7.9264135 3.1190066 168
-10.59357 -7.3792911 3.1428435 112
-10.550763 -7.1994019 3.0810373 130
-10.142735 -5.1176353 3.1862843 49.5
-10.120975 -4.7132716 3.1984355 17
7.8876371 -4.6294227 3.0265219 214
-9.8869343 -4.2170029 3.1754491 69
-9.8490057 -3.9843247 3.1985748 71
-9.6249666 -3.1308575 3.06949 16
-9.4985876 -2.4914048 3.1081169 34
-9.3520184 -1.7782266 3.1189685 32
-9.3153229 -1.468276 3.0408163 74
-9.2063341 -1.1825824 3.0180674 178
8.8296909 -0.34990448 3.104737 10
8.9217758 -0.06609875 3.0644693 65
9.0954514 1.014535 3.0435624 19
-8.7504492 1.2885301 3.0448227 5
9.2184219 1.3274817 3.0493226 41
9.2171755 1.577163 3.0092733 21
9.3036518 1.6121832 3.0341642 26
9.7033634 3.4128642 3.166224 57
9.7357388 3.9714322 3.1798823 162
6.6580906 4.1109638 3.118969 160.5
6.1506996 4.4639497 3.1069958 204.66667
2.6427925 4.996345 3.0865006 279.5
2.9476073 4.9437656 3.1568239 287
3.1368346 4.8741503 3.1561747 165
3.2167013 4.8784389 3.1037691 100
2.6269052 5.0478554 3.0502777 197
6.2942371 5.1608405 3.1919854 90
5.0325813 5.5106764 3.1160228 177
-0.89526445 5.7584062 3.1088297 14
-0.70346296 5.7420158 3.120635 124.5
-0.29731077 5.6882553 3.0975313 213.66667
-0.8289085 5.8010731 3.1953297 236
5.0711894 5.8178244 3.1934216 9
1.4674118 6.2646332 3.0633249 142
-3.7336402 6.7728558 3.1459398 135.5
-2.0338101 7.0855684 3.1311243 59
-7.3103595 8.1893883 3.1102259 20
1.5267255 -10.600985 3.371268 73
2.9637921 -10.185329 3.2097552 235
-0.0827685 -9.2983618 3.273813 10
-5.7313938 -9.0108232 3.3629949 56
-6.8270793 -8.7572289 3.2958171 125
-3.9096527 -8.4923239 3.3322952 23.333334
-7.0644102 -8.0025806 3.3851178 101
-7.2945137 -7.8962946 3.3496935 155
-7.0703373 -7.9500818 3.2449808 169
-10.081911 -7.6138158 3.349143 93
-10.54082 -7.485271 3.2186007 122
-10.715213 -7.0281277 3.2993667 12
7.2928553 -7.1427264 3.2942312 87
-10.506474 -6.8047309 3.2370937 75
7.4661674 -6.5013809 3.3180265 20
-10.386634 -6.2306418 3.2713096 106
7.6952314 -5.460412 3.2026372 177
7.962388 -4.4153709 3.2076404 12
7.9823451 -4.0484104 3.2125576 7
8.2623587 -3.1137743 3.208601 28
9.6761208 3.5098882 3.2778685 148
9.7183342 3.8950419 3.330183 197
6.4965205 4.1573343 3.2984362 227
6.6547451 4.1046958 3.2833002 87.25
9.8350868 4.3765016 3.3642592 152
6.1774521 4.5228891 3.2989898 186
6.204875 4.6072202 3.2993195 220
3.1816738 4.8560262 3.2604122 84
3.2080307 4.8717766 3.3995197 98
6.275239 4.9948483 3.3845975 145
2.6513042 5.0489883 3.356997 261
-0.8506403 5.7541065 3.3489838 11.5
-0.75975156 5.7693748 3.3176308 234
-0.28733501 5.7056723 3.2975495 150.5
4.9568505 5.625144 3.3896687 65
-4.3393197 6.5681086 3.2241447 134
-4.0269842 6.4873919 3.230092 123
-1.9904482 7.073493 3.3888586 75
5.7075915 -11.123439 3.4437847 102
2.673516 -10.907486 3.4655244 47
2.9173694 -10.181136 3.4404621 140
-0.21932274 -9.4125776 3.4243021 73
-0.19316289 -9.4324303 3.4070299 56
-0.21219547 -9.3709736 3.5677505 52
-3.941505 -8.5256252 3.5349352 39
-7.5389686 -7.8086023 3.561892 157
8.9358273 -2.0712869 3.5941224 10
9.9523563 3.435998 3.5630026 32
6.5958376 4.1209297 3.4828877 244
6.6891112 4.0662465 3.4323807 33
6.1388173 4.3799677 3.4722939 208
6.2659159 4.2018642 3.5588 142
6.1150002 4.423985 3.5345712 218
2.6544456 4.9940491 3.4680684 275
2.8280733 4.9565568 3.5612364 221
3.1515596 4.898634 3.5549102 239
2.5982895 5.0341043 3.5585282 145
2.65027 5.0140271 3.4553232 252
-0.85234129 5.783731 3.5897844 120
-0.69378048 5.7735286 3.5017653 213
-0.30320185 5.6730838 3.5034027 151.5
1.5115182 6.2791662 3.4905634 153
6.5782957 6.4983296 3.5535457 15
-4.2839785 6.6017904 3.5945482 17
-3.7177765 6.7782702 3.5661938 154
6.3259749 -11.18384 3.6552722 105
4.659153 -10.866745 3.6631539 126
2.8822956 -10.186208 3.6274366 148
-0.17902461 -9.3515224 3.6486635 14
-1.5191877 -8.9971418 3.6211424 19
-7.1851306 -8.6530027 3.7321796 59
-4.0689621 -8.5754271 3.6959484 99
-3.9115331 -8.4773855 3.6362367 21
-7.0549273 -8.0005693 3.6954236 108
-7.0826769 -7.8981729 3.7315915 153.5
-10.605842 -7.4306636 3.6584258 140
-10.254676 -7.5542507 3.7090878 102
-10.724689 -7.0990191 3.741467 24
-9.7857199 -3.4272158 3.7565179 14
8.8389626 -2.2823267 3.7453177 9.666667
8.9308176 -2.1395817 3.666682 13
10.69869 1.8450294 3.770674 8
10.406322 2.1928909 3.7823503 5
9.6489906 3.6646428 3.7564635 95.5
9.7209969 3.9548535 3.6558073 147
6.6246872 4.1103535 3.7313833 111.5
6.2184219 4.2409244 3.6138678 233
6.1579595 4.463532 3.6862059 238.5
9.8244267 4.4632988 3.6035931 38
3.1650181 4.8793702 3.6643615 168
3.2016425 4.8815188 3.6001904 46
2.6540298 5.0074811 3.6832201 250
6.2910218 5.2146578 3.6234279 57
4.9854288 5.5531054 3.7336404 141
5.126894 5.485024 3.618253 20
-0.71261561 5.7745585 3.7313137 177.5
-0.27504161 5.7387333 3.6809835 155
5.0444684 5.748807 3.6000767 31
-0.7744205 5.8132262 3.6119473 191
1.5588189 6.2738681 3.7375157 101
-4.3750648 6.5933723 3.7269399 87
6.5396366 6.4683886 3.7914436 5
2.8514931 -10.319614 3.8038826 110
2.9060593 -10.188078 3.9952996 121
3.1741967 -10.19971 3.8918056 193
-0.11028147 -9.4574203 3.913358 199.5
-1.4798644 -8.9963751 3.9767151 19
-4.1018844 -8.5083408 3.8800063 105.5
-3.8739321 -8.4490633 3.8706996 17
-7.0553555 -7.9372749 3.8996556 113
-9.921217 -7.619884 3.9898169 86
-10.602668 -7.2936769 3.8989382 101
-9.8074837 -3.4075866 3.9255316 25
-10.531487 -0.68267441 3.9702628 12
-8.6904688 1.452935 3.9825735 19
-9.8727074 1.8725698 3.9990187 15
9.952076 3.3718624 3.9753134 22
10.076643 3.3562512 3.9344022 15
6.6549468 4.1148 3.9121239 99.75
9.7699718 4.0683808 3.9531987 156
6.1355276 4.371583 3.8002372 206
6.1660733 4.508215 3.8009326 157
2.8420804 4.9888668 3.9325554 240
3.1758668 4.9158335 3.8690138 248
2.636915 5.0344958 3.8811092 198.33333
6.3028073 5.0674901 3.8584657 167
6.3103409 5.2550497 3.9868443 51
-0.29202089 5.7133546 3.9259522 116
-0.86578292 5.8234458 3.9185772 77.5
1.5594773 6.2918558 3.9446781 78
-3.6501601 7.1423478 3.8161931 150
-1.9707484 7.0842729 3.8721793 127
-1.8639526 7.2621636 3.948549 18
-3.3100972 8.5343456 3.8072665 14
5.8595071 -11.118684 4.1331682 101
-6.5250401 -10.663302 4.0460877 26
2.8962393 -10.174276 4.0548978 107
-0.073717333 -9.4628086 4.0676227 123
-4.1035209 -8.5466509 4.0855522 161
-7.1061463 -7.9132128 4.133369 132
-9.3128414 -7.6934538 4.1389084 102
-10.622202 -7.3122649 4.0567865 102
-10.321179 -2.6389532 4.1626482 17
8.3254099 -2.7666249 4.1496844 38
-10.642907 -1.8323627 4.1558495 9
8.6280174 -1.290308 4.103054 19
10.066614 3.2972541 4.0257359 10
9.6961536 3.8958559 4.06638 156
6.4811516 4.1883135 4.0782118 178
6.6337762 4.1153498 4.1841383 80
6.1171174 4.3471036 4.0550165 161
6.2035208 4.221766 4.0343089 136
6.1628151 4.4629674 4.127305 249
3.1466982 4.9022121 4.0434818 175.75
6.2244744 4.9002037 4.1803646 204
2.6287668 5.1037998 4.0929608 135.5
6.2971001 5.1659212 4.1962786 111
-0.31384841 5.7181568 4.0766644 182
-0.86615604 5.8261089 4.0865045 76
1.4966488 6.3126826 4.1514187 52
-4.3228841 6.6237035 4.1159768 102
-3.7208271 6.7325568 4.0422482 97
6.8196578 -11.02998 4.3003645 9
4.7918339 -10.857591 4.3242679 106
6.5229077 -10.930576 4.320807 64
2.8706529 -10.233775 4.2269778 99
2.9036489 -10.130229 4.3343077 128
-1.1609292 -9.5127735 4.3911939 70
-0.77471757 -9.5827217 4.2592139 213
-0.095753543 -9.4258423 4.2205415 204
-3.5293071 -9.0262442 4.3937297 166
-3.5379179 -8.9773092 4.3552766 201
-4.0976276 -8.541214 4.2971516 149.66667
-7.0953598 -7.9107022 4.3087611 120.33334
-10.833957 -7.0068226 4.3914309 13
-10.569991 -7.1908422 4.2865005 100
-10.74828 -5.8867378 4.3504677 7
9.617816 3.6438057 4.3678761 176
9.6899843 3.8379021 4.2074995 159
6.6676979 4.1208167 4.3054905 103.66666
9.7138414 4.074451 4.3836246 128
6.3055754 4.2390051 4.2716007 218
6.1645584 4.4746675 4.2746677 218.5
2.747889 4.9901657 4.3683963 226
2.6306963 5.0971627 4.3359933 127
-0.86601174 5.7920351 4.2421398 132
-0.30250534 5.7340775 4.310173 97
4.9981008 5.695888 4.2359338 42
-0.80307525 5.8410101 4.3252525 190
1.5350189 6.2968664 4.2637115 58
-4.4163837 6.6122503 4.2591925 30
-3.7359526 6.824738 4.2044754 125
-1.9526215 7.1313062 4.3898692 96
-7.203371 8.0043344 4.2826514 25
6.1458468 -11.175033 4.5305619 123
3.2883873 -10.205254 4.5139146 122
-0.14487599 -9.426816 4.4855685 172.66667
9.0547791 -9.1906233 4.460104 18
-4.0845618 -8.5212603 4.4933262 179
-3.9658563 -8.5642052 4.4881043 155
-7.0526261 -8.024229 4.4301105 78
-9.028676 -7.7684336 4.5166588 9
-10.603089 -7.2999268 4.5245085 77
-10.5532 -7.2916932 4.4204812 90
-10.701107 -5.9565806 4.5440674 48
-10.265229 -2.6297996 4.5669751 85
-10.186656 -2.7144029 4.4982715 56
-10.44157 -2.5786436 4.4849091 49
9.7362604 3.9513676 4.4767857 130
6.6817393 4.1335826 4.4899774 106
9.7376957 4.00705 4.4249506 139
6.1468158 4.3644238 4.5987077 214
6.1530304 4.4812727 4.5764103 155.66667
6.1726146 4.6275892 4.5376763 147
6.2382903 4.7298231 4.4058971 153
2.9596784 4.9581261 4.4884992 174
3.1599872 4.9203453 4.5012765 171.33333
3.2274904 4.951757 4.4216151 53
2.6403828 5.1258764 4.4305763 83.5
-0.76740807 5.7977042 4.4902935 45
-0.31266826 5.7006812 4.465868 137
5.0084996 5.7903204 4.5997653 10
-0.79790103 5.8164263 4.404705 183
-3.7291646 6.7044449 4.5512881 75
-7.2667933 7.3895516 4.4577055 42
1.7890553 -12.542191 4.7565885 26
-6.5327654 -10.601794 4.6957297 30
2.887764 -10.20346 4.6125979 85
2.8856828 -10.184644 4.6666923 89
-0.047305241 -9.4101105 4.6885428 88
-0.1271365 -9.388588 4.7629433 217
-3.5457633 -8.9520235 4.6289134 201
-7.1661739 -8.4464502 4.7418613 60
-4.131186 -8.5219803 4.6306014 114
-7.1146698 -8.1483383 4.6866889 78
-7.0984468 -7.8484025 4.7533736 106
-10.340708 -7.4615211 4.6005135 88
-10.605764 -7.1154923 4.698998 72
-14.26591 -6.8415856 4.6445775 12
-14.187255 -6.527576 4.7205181 12
-10.223372 -2.6886883 4.7247 73
-9.6216278 0.22840923 4.6776752 70
10.086347 3.3713493 4.7075858 72
6.6486392 4.1250181 4.7403951 76.5
9.7355871 4.0876613 4.6946611 163
9.7506313 4.2178421 4.6072249 155
3.1901112 4.8842587 4.6689768 61.5
2.6676393 5.0653472 4.7461863 195
-0.7557683 5.7917476 4.7173815 103
-0.31091818 5.7314095 4.6501274 113.33334
-0.64449018 5.8273644 4.6374612 137
-0.14806354 6.36725 4.645031 46
1.4845114 6.3583531 4.7842617 18
-4.3400564 6.6280222 4.7236147 65
-7.4239559 7.3438339 4.7620687 53
-7.2764163 7.4002571 4.6366181 120
-3.5414746 8.2183342 4.651825 6
-7.1768618 8.4059858 4.708828 10
6.0643735 -11.176769 4.8899546 69
6.7687745 -10.97228 4.9971495 69
2.8391097 -10.219566 4.8275704 90
2.8738678 -10.117801 4.9362869 123
-1.081287 -9.5402088 4.9840417 84
-0.80702394 -9.5723133 4.8261271 207
-0.17790967 -9.4069853 4.9802113 146
-3.5648241 -8.9760685 4.9655533 198
-4.1236081 -8.5074806 4.877264 101.66666
-7.1177754 -8.0312796 4.9783902 80
-7.0699792 -7.9189939 4.8787165 107
-10.720169 -2.4524601 4.9225059 58
9.679615 3.8657479 4.8071699 162
6.4808874 4.2296548 4.8742743 173.5
6.1368489 4.4491315 4.8144002 219
3.1834297 4.9216213 4.9346471 120
6.2171555 4.859437 4.9401965 135
2.6814334 5.0366287 4.8683901 140.2
2.9488041 5.0096302 4.9591079 141
-0.83245194 5.8381615 4.8697834 78
-0.63573855 5.8078513 4.9015636 98
-0.24785891 5.8174014 4.9630132 53
1.569417 6.2823482 4.9172564 24
-1.9885781 7.1608005 4.9486351 33
-7.4517632 7.3803425 4.9005976 102
-7.2785373 7.667964 4.8387866 19
9.7292576 -12.295118 5.1483731 48
9.8626118 -11.930555 5.1862206 75
5.279253 -10.912271 5.1242585 35
6.9336557 -10.961559 5.1463861 48
-0.90187258 -9.5588913 5.0538263 142
-0.04580161 -9.4089031 5.1060524 66
-0.073003829 -9.3836937 5.1090255 120
-3.5248721 -8.9403572 5.1096435 195
-3.7642093 -8.6066151 5.0644107 139
-4.1070361 -8.5041113 5.0722532 162
-7.0944076 -7.964283 5.0737157 99.666664
-10.432494 -7.4223084 5.0171871 117
-10.262227 -7.463903 5.0572901 85
-14.254993 -7.0608902 5.0103741 15
-11.008283 -7.0124264 5.1778316 96
-11.05026 -6.9168205 5.1422215 44
9.7845278 3.4651325 5.0474696 95
9.868701 3.4352317 5.0903254 76.5
10.088646 3.4104595 5.1944351 73
13.308811 3.5325108 5.0913901 16.5
9.6844664 3.9106224 5.1760769 155
6.6437578 4.1547265 5.0217419 140
9.7815008 4.3065009 5.0795536 126
6.1243625 4.4304023 5.0539174 144.66667
2.9161923 4.960041 5.030746 142
3.2099817 4.9527898 5.0235696 61
2.6364772 5.0771255 5.1192279 89
6.3143034 5.2166581 5.0716987 129
-0.28528482 5.7643147 5.0706959 86.5
-0.86178803 5.8803968 5.0840445 43
-0.66387826 5.8061347 5.0028715 102
-0.22523564 6.0249324 5.0590496 57
-3.7474263 6.8200712 5.166657 49.5
-1.8918567 7.2663875 5.0077243 28
-3.6256669 7.4354706 5.045013 80
10.233872 -11.759717 5.227756 68
6.9012661 -10.973495 5.3660536 58
-5.9613113 -10.668404 5.3361187 70
2.8654974 -10.216286 5.2585888 53
3.4278481 -10.305001 5.2178001 115
-0.81242615 -9.5615492 5.2040391 176
-0.072506055 -9.4262142 5.2928195 97
-0.37301973 -9.3448143 5.317903 169
-3.5698204 -8.9356909 5.2213349 171
-4.147563 -8.4868803 5.2000117 77
-7.3740063 -7.7771802 5.2847986 104
-9.9521351 -7.5074191 5.3672132 7
-14.251642 -6.9798431 5.3455696 14
-11.020778 -6.962184 5.2925515 61
10.104292 3.3891943 5.3734236 56
9.9869452 3.4277384 5.3562708 104
6.6523113 4.1708741 5.3646293 125.66666
9.7426844 4.1061821 5.2555585 147
6.1588678 4.5289521 5.2072392 159
9.812294 4.4544415 5.2258925 64
6.1734333 4.6053882 5.370882 153
3.1590219 4.9466071 5.2606034 112
2.6436722 5.0812178 5.3547921 125.66666
-4.6006126 5.4699512 5.3951139 78
-0.28692436 5.7842388 5.2405939 62.5
4.986393 5.6218362 5.396729 93
-0.86690855 5.8326716 5.2817664 74
-0.71197993 5.8426661 5.3416176 81
-0.26852077 5.8383212 5.2068176 60
-4.3255138 6.6407137 5.3041058 88
-1.8910823 7.248652 5.3652868 5
9.4605713 -12.778023 5.4302363 6
1.9013865 -12.430981 5.4476528 88
2.7489045 -10.655678 5.499557 58
2.8788218 -10.126047 5.5088978 117
-0.99015075 -9.5023537 5.5777488 161
-0.08834976 -9.3971653 5.5983205 80
-4.1012239 -8.5158691 5.436614 107.5
-7.1173873 -7.8460975 5.5044637 116.66666
-10.159469 -7.4870286 5.4868865 105
-11.113278 -6.9466867 5.4500375 37
-10.773949 -6.9519563 5.591867 20
-12.615896 0.97511023 5.566555 32
6.1375709 1.7636943 5.5947022 50
5.6836276 2.3609326 5.5907202 143
9.8018827 2.3839233 5.5780649 54
6.2742362 2.4070365 5.5933895 133
13.457724 2.4246233 5.5592546 9
5.7690744 2.7060006 5.5890141 188
5.9465151 2.7460573 5.5622864 23
6.3258529 2.7344337 5.558876 68.5
5.8194733 2.9893637 5.5567927 154
6.3724365 2.9597838 5.550962 97
5.8386607 3.1872995 5.5908065 155
6.3335361 3.0937362 5.5783076 214
5.8996019 3.3115511 5.5755677 142
6.4696512 3.3317213 5.5432944 124.5
-8.7253828 3.4237628 5.4545784 29
5.9475727 3.5598125 5.5440793 123
9.5759335 3.4235187 5.5780382 144
5.9828997 3.7804937 5.5601616 169
9.6540585 3.7488179 5.4077005 149
13.272116 3.7153227 5.5361376 13
-11.777547 3.9127119 5.4861622 42
-4.4048882 3.9963424 5.5598545 75
6.5981946 3.8193457 5.5254154 48
2.98856 4.0449719 5.5114207 98
6.0854816 4.0905862 5.5419154 144
6.6084709 4.178802 5.4805074 143
-8.2862539 4.297461 5.4928889 72
-4.9004278 4.2756133 5.4356704 37
2.9073639 4.2558475 5.5013771 120
3.0222201 4.3783331 5.4766355 171
6.0967464 4.2877769 5.5460987 119
6.3818688 4.2443309 5.4372878 162
2.5250401 4.5370216 5.5270519 101.5
3.0842547 4.5648446 5.4602661 34
2.548943 4.67136 5.5185347 85
3.1135998 4.7585964 5.5013328 118.33334
-11.623506 4.832705 5.59131 39
-11.596658 4.9043598 5.5587444 39
-4.2256618 4.8527532 5.4316015 46
3.138869 4.8891077 5.4736671 135.75
6.2072778 4.8009443 5.5561414 110
2.6550148 5.0885739 5.4581728 77.400002
-4.0992322 5.2904105 5.4930983 40
6.318634 5.2006655 5.4162512 111
-8.3131533 5.4885731 5.4574943 40
-4.5509472 5.5886889 5.4264278 100
-0.94102097 5.4758997 5.4403272 52.5
-0.34300631 5.5431318 5.4910917 57.5
4.9687204 5.5717974 5.4119806 115
-0.88284147 5.7164326 5.4466791 59
-0.30129087 5.7158828 5.4321151 62
-4.5368423 5.8010511 5.4020624 72
-3.9714167 5.9724154 5.4573808 86
-0.79308379 5.8010392 5.4401588 114
-7.8562784 6.0976877 5.4250231 99
-3.8672416 6.2578077 5.4575386 79
1.4739022 6.3432426 5.4781394 66
-11.154675 6.4547296 5.5665283 45
-7.3755827 7.3557506 5.4243817 47
9.4924803 -12.851294 5.7939363 23
10.680492 -11.016614 5.6394515 47
6.4852552 -10.889644 5.7637763 80
6.731082 -10.941604 5.7293768 62
2.8181169 -10.164505 5.7048326 79
-0.80777174 -9.5328121 5.6711059 125
-0.30628571 -9.3665257 5.6967559 154
-0.099195123 -9.3630333 5.7259045 121
-3.4312351 -8.9459314 5.7451615 164
-4.1092205 -8.4719868 5.6980557 113.66666
-3.6675646 -8.5900049 5.6594114 119
-7.104259 -7.864336 5.6183405 117
-10.28583 -7.4277668 5.7609477 98.333336
-11.119058 -6.9267869 5.6275215 30
-6.4140649 -3.2480302 5.7839637 56
-6.521451 -2.8856039 5.7836456 82.5
5.0193491 -2.9828029 5.7972474 35
-6.4207363 -2.4320943 5.7674856 81
-5.8791656 -2.4650574 5.77882 112
-6.335711 -2.1380582 5.7573586 102
-9.9431372 -1.9512738 5.7771845 83
-6.2399926 -1.8617488 5.753427 12
16.142727 -1.9184711 5.6085868 12
-6.2635331 -1.63078 5.7661991 91
-6.2037849 -1.415198 5.7009821 69
-9.5497522 -1.3928833 5.7633228 71
-13.242117 -0.91598177 5.7891445 6.5
5.430995 -0.88524956 5.7052274 27
8.8809099 -0.90492541 5.7361603 69
-9.1152611 -0.73991853 5.6951752 63
-9.6009207 -0.53645992 5.7493782 110
12.887709 -0.48712078 5.7212877 12
-5.903017 -0.35549897 5.6365075 44
5.2459774 0.34193665 5.7717443 9
12.802192 0.3359482 5.7357979 9
5.3026409 0.52569383 5.7844615 23
5.7011313 0.45263213 5.6491299 24
5.8089504 0.51535636 5.6497002 6
12.944752 0.43693823 5.7408662 8
5.8446522 0.75255829 5.6569567 234
9.4412727 0.67687106 5.6425619 6
12.976918 0.87223995 5.749361 11
5.9718556 1.0714492 5.6310935 68
-9.167345 1.2785596 5.6809378 95.5
6.0069842 1.2385845 5.6330357 134
9.6848431 1.3077193 5.6438522 34
-8.6476278 1.4045579 5.6871524 168
5.4887705 1.5566986 5.6269693 144
9.6548405 1.4804256 5.6450114 110
12.867448 1.5776215 5.7177229 73
6.130147 1.6998149 5.6156836 29
9.759203 1.7639995 5.6116104 66.5
12.8793 1.7832378 5.6707563 38
13.340134 1.7545099 5.6191969 14
6.2082629 2.1662748 5.620892 126
9.2911921 2.1498535 5.6306086 134
9.8668432 2.1852064 5.6317549 93
5.6714015 2.3448219 5.6312723 175
6.1753001 2.6299565 5.6069555 171
9.4425964 2.7469757 5.6220713 146
9.4921703 2.8882167 5.60115 113
13.222145 3.5738478 5.6514759 21
9.731698 3.9997032 5.7798848 100
6.2555881 4.9817624 5.6574702 113
6.3159714 5.2656655 5.7272301 65
4.994957 5.6846218 5.7122784 42
5.0244503 5.6107621 5.6537442 146
-11.327861 6.0975618 5.6967635 120
-3.8570621 6.7150602 5.7292619 23
-3.6376321 7.3808475 5.6252637 56
-2.0468025 7.2983971 5.631166 5
-1.8931974 7.2355027 5.7293944 31
-10.818153 8.0585051 5.7499599 80
9.6968012 -12.262242 5.9830031 49
10.573346 -11.014823 5.9949799 52
2.9379568 -10.095899 5.8903947 105
-0.83901221 -9.5367165 5.8349295 146
-0.51221031 -9.2650137 5.8896084 135
-0.10300346 -9.3934069 5.9055762 121
-3.5281835 -8.9097691 5.9860582 138
-7.1308317 -7.8841982 5.8525872 115
-7.2441621 -7.7884412 5.9475436 80
-10.225243 -7.4931517 5.9674749 93
-11.040927 -6.9196215 5.8668356 82
7.820693 -6.6668811 5.9605894 51
-3.6911118 -6.5061111 5.9996171 86
0.49447858 -6.5551276 5.9958873 69
-7.2594924 -6.2367578 5.9747963 81
-3.6041715 -6.2802153 5.9888468 104
-3.57795 -6.239408 5.9901252 97
0.57675135 -6.3289824 5.9756908 80.5
3.8014467 -6.2897143 5.9741178 18
-6.7266164 -6.1054969 5.9808912 78
0.63501763 -6.134151 5.9684315 71
4.3143559 -6.0317883 5.9259233 39
11.623412 -6.0216331 5.9345522 34
-14.287253 -5.9492755 5.9897318 17
-7.1642666 -5.9132996 5.9816051 101.66666
-3.5147836 -5.8098025 5.969182 114
-3.0903449 -5.8568563 5.9868269 53
-2.9680455 -5.812726 5.9909797 57
4.3709846 -5.8118186 5.9386635 33
11.658159 -5.9466891 5.9694552 35
-7.1747851 -5.7608633 5.9534721 96
-3.4916255 -5.6706715 5.9578381 65
0.13892093 -5.7408543 5.9714594 67
0.71640605 -5.6666307 5.9598551 79.5
4.0958991 -5.76122 5.9602046 53
4.4175043 -5.7012372 5.9423709 137
-14.252789 -5.4967046 5.8848424 39
-14.167638 -5.4963636 5.9784126 41
-7.1079626 -5.5802751 5.9290185 86
-6.5369282 -5.5003352 5.9876494 87
-3.464622 -5.5116768 5.9502354 75.75
8.1141262 -5.5557904 5.9106455 78
-10.68378 -5.2720418 5.9869308 74
-10.185276 -5.2055373 5.9754243 68
-7.0525317 -5.3222537 5.9637351 108
-6.4904208 -5.3770046 5.9926367 97
-2.8568277 -5.2847757 5.9721675 68
15.255663 -5.3910813 5.8811097 12
-13.838693 -5.1488633 5.9729958 37
-10.68609 -5.1007252 5.952004 64
-6.534904 -5.1153665 5.97153 86
-3.3654459 -5.0771561 5.914588 85
-2.7908697 -5.0173874 5.9711709 81
-6.9318404 -4.8781509 5.9301348 141.5
-3.2822824 -4.9751468 5.9071794 99
-10.058925 -4.6440425 5.9652996 97
-6.9455538 -4.6962409 5.9335542 102.5
-6.6290574 -4.6183891 5.9011102 80
-6.3879194 -4.6634669 5.9435868 74
-3.2757733 -4.664485 5.9209175 111
4.612155 -4.7125106 5.8838925 61
-10.524475 -4.4535851 5.9131041 57
4.6961837 -4.4584026 5.9035492 72
-10.429739 -4.3836203 5.968317 54
-6.8128099 -4.3050694 5.8348951 58
-6.2829309 -4.3436236 5.9398117 91
-9.8922777 -4.1748643 5.9797707 112
-6.8172603 -4.0362625 5.8838062 37
-6.2576809 -4.1380301 5.8953962 85
-9.8743954 -3.8615789 5.9187822 108.5
-6.5574093 -3.9712152 5.8684325 60
-6.1796637 -3.8081915 5.9029665 64
4.82903 -3.946027 5.8566456 118
-9.8522463 -3.7007275 5.8753867 115
-10.369792 -3.5829155 5.8586721 30
-6.6320405 -3.466763 5.8486605 121
-6.1286888 -3.5438256 5.8948736 46
4.6770964 -3.4280529 5.8285065 53
-9.703372 -3.3634641 5.9546905 113
-6.0737348 -3.3464887 5.8965111 106
-9.6911325 -3.1383359 5.8842931 97
-6.0001531 -3.1017175 5.8562202 107
4.4688916 -2.878134 5.9681048 25
-10.176719 -2.6764679 5.8206491 78
-6.4674678 -2.7473712 5.807313 67
-5.8964243 -2.7536035 5.8185329 90
-6.0519977 -2.4298623 5.8520398 11
-5.8953309 -2.5496984 5.8135872 107
4.9900165 -2.4197114 5.8132262 10
-10.102089 -2.3984773 5.8724594 28
15.733803 -2.3459427 5.9271369 13
-9.9763298 -2.0716755 5.8147306 48
-9.3849974 -2.0015621 5.8100901 120
8.4602518 -1.8506366 5.8104734 33
12.739843 -1.6361365 5.8111153 11
