# .PCD v0.7 - Point Cloud Data file format
VERSION 0.7
FIELDS x y z intensity
SIZE 4 4 4 4
TYPE F F F F
COUNT 1 1 1 1
WIDTH 1336
HEIGHT 1
VIEWPOINT 0 0 0 1 0 0 0
POINTS 1336
DATA ascii
-1.7233094 -10.379777 4.2886276 11
2.7404175 -10.33991 4.2202201 109.5
7.2236781 -10.367064 4.2037416 114
7.370357 -10.178594 4.179709 125
2.8811951 -10.125754 4.1496086 126
3.0687106 -9.8753757 4.0715575 129.66667
7.5666885 -9.9355392 4.1528025 123.33334
-1.1474905 -9.49615 4.4556589 66
7.841979 -9.5570393 4.1097589 138
-2.8347037 -9.0988493 4.5114455 34
-0.94471592 -9.215703 4.309783 102.5
3.7858076 -8.9889584 4.3997841 170
8.0686531 -9.2482109 4.0795674 129.5
8.2548981 -9.0123253 4.0624285 150.5
-0.75150049 -8.9313679 4.1642933 113
3.9776042 -8.7049284 4.3135319 190.75
8.4301519 -8.7683201 4.0435519 165
8.5795383 -8.6055889 4.0400062 154
-8.7144289 -8.1465902 4.519465 10
-0.32998091 -8.4324064 4.4384794 104.5
-0.17150994 -8.1851959 4.3011031 98
4.2362227 -8.323041 4.2039628 193.66667
8.7381611 -8.3509741 4.0196843 167
-0.0714771 -8.0445547 4.223299 125
4.4230762 -8.0785637 4.1426649 204.5
4.5645456 -7.8804936 4.0941043 230
9.0116701 -8.0075903 4.0111442 129.66667
0.31156248 -7.5578017 4.4607511 116
4.7858324 -7.6150422 4.0408411 180.5
5.1467023 -7.3757291 4.0371866 124
9.2842808 -7.6657133 4.0084667 150
9.3933773 -7.473464 3.9981289 167
-3.6169569 -7.1400213 4.3655453 140.33333
-3.3939314 -7.2373519 4.3475652 138
0.47846037 -7.3067603 4.3123245 145
0.74714077 -7.1319776 4.2147317 84.5
1.1094298 -7.0773048 4.1983271 72.75
1.3242362 -7.0561647 4.2004676 149
5.2704425 -7.2698607 4.0296683 141
5.5121431 -7.140749 4.0472913 134.5
5.7987084 -6.9765506 4.0687556 149.5
9.6125011 -7.1843863 4.0003114 168.33333
9.7827272 -6.949297 4.0025983 174
-5.6977754 -6.8807821 4.399282 57
-2.9229131 -6.589859 4.4023266 175.66667
0.87958264 -6.8117237 4.5189772 84
0.98320866 -6.6699634 4.4322982 103
5.5378838 -6.6521134 4.4202175 214.5
6.0154095 -6.8096991 4.0749249 135
6.1836619 -6.6699309 4.0788617 82
9.9553471 -6.7156129 4.008894 140
-7.0907373 -6.3749075 4.7664881 21
-3.1690912 -6.4960251 4.4277601 177.33333
1.2051084 -6.4661593 4.3169641 90.333336
1.5282263 -6.3495669 4.2763758 109.4
1.8689282 -6.2622509 4.2692418 163
5.6580958 -6.4741511 4.3907719 204
5.8158035 -6.2651548 4.3656492 198.66667
10.281993 -6.3197556 4.0353289 103.75
-6.6333909 -5.8185201 4.4183812 79
-2.769876 -5.9193068 4.4750752 174.66667
-2.5521045 -6.0142298 4.4602914 168.66667
1.553243 -5.9258614 4.4755416 165.25
1.7682049 -5.7519789 4.3890572 72
6.0027914 -6.0168591 4.3411703 209.66667
6.1610556 -5.8156524 4.3282833 227.5
10.508239 -6.0291204 4.0553064 87
10.692649 -5.8794823 4.0878043 62
-11.071527 -5.6134539 4.8680949 11
-6.3556094 -5.4763479 4.7503242 78
-2.4557981 -5.4730334 4.5755296 116.5
-2.1666179 -5.5331068 4.5145731 118.66666
1.9632428 -5.6579261 4.3631806 158.60001
2.3304136 -5.519383 4.3559823 205.5
2.6041572 -5.4308128 4.3723083 189.5
6.3768611 -5.5321708 4.3154545 244
10.844192 -5.70924 4.1087909 58
11.061449 -5.4858894 4.1445928 47.333332
-6.4248796 -5.0717578 4.6552095 220.75
-6.2163467 -5.2249851 4.6043048 185
-2.073873 -5.0014195 4.5832224 115
-1.7351278 -5.1204543 4.5532417 128.25
2.0780051 -5.2338462 4.5602179 170.5
2.242476 -5.0295238 4.4551988 178.39999
6.6766253 -5.1236787 4.306304 229
11.20204 -5.2219257 4.1537752 55
11.325879 -5.1137524 4.1790876 29
-5.8878717 -4.6192412 4.776206 154
-5.8260446 -4.6874151 4.7670188 144
-1.6963527 -4.6217041 4.6166825 94.285713
-1.4139394 -4.7098904 4.5898256 102
2.4656284 -4.8909655 4.4257293 174
2.7292898 -4.7633581 4.4316502 141
3.0161009 -4.6078768 4.4408021 92.5
6.870532 -4.8900146 4.3175292 156
7.0446877 -4.7016435 4.3396873 160.25
11.69519 -4.6129837 4.2397037 27
-10.008843 -4.2066689 4.9375939 10
-6.0269504 -4.4361253 4.7900672 164.75
2.853709 -4.2299361 4.5726633 140
3.2224894 -4.5038252 4.4631019 145
3.3870678 -4.3950272 4.4704318 240.66667
7.2547612 -4.4732056 4.3708997 133.5
7.4104924 -4.2676377 4.3896518 155.66667
11.840554 -4.3418145 4.259685 52
-9.8897705 -4.0138588 4.8607478 16
-9.586091 -3.7536221 4.6953125 117
-5.4162445 -4.0233521 4.8227272 184
2.8931935 -4.128715 4.5172553 157
3.1281261 -3.9949026 4.5459175 106
3.3868713 -3.7903075 4.5515623 101
7.6270223 -3.9750066 4.4213614 173.5
7.7847581 -3.7647474 4.4497952 162
12.05623 -4.0116014 4.2999511 68
12.202164 -3.8155098 4.3317785 81
-9.4404411 -3.5629146 4.6084661 140
3.5986056 -3.6207454 4.5722561 101.83334
7.8924384 -3.5854406 4.4650741 159
3.8894825 -3.3151603 4.5794001 107.5
-11.56633 -2.693537 4.7861624 57.5
-11.58014 -2.4707808 4.7813373 20
13.825899 -1.9255062 4.0249782 16.5
-12.320049 -1.4538344 5.0552316 128
13.895341 -1.5056061 4.0427508 23.666666
-12.12396 -1.202576 4.9740791 132
14.069315 -1.1801467 4.0938463 14
-11.981504 -0.88948464 4.9170365 91
10.917259 0.24731079 4.4341407 100
11.06305 0.11647265 4.4871569 109
10.870048 0.51564562 4.4380546 136.33333
10.438509 1.0067831 4.3018284 146
10.601244 0.8927542 4.3585777 125
10.031734 1.3378073 4.1674013 152
10.255604 1.1774478 4.2426157 133.5
9.4191399 1.7611959 4.5433979 192.5
8.2722282 2.2192552 4.6382756 201
8.8901052 2.1710777 4.362709 218
9.1301346 1.9952528 4.4446158 199.66667
8.0590315 2.4795668 4.5821939 176
8.1765289 2.3003428 4.6052032 220
8.8016453 2.2631295 4.3377314 184
8.0861578 2.7051239 4.6434789 130
8.3672924 3.1602929 4.3159566 130
8.5537205 3.3502524 4.4375935 152
9.8797512 4.1800237 4.5431237 149
5.20016 4.5878968 4.4076257 270.33334
5.411109 4.4311609 4.4300156 278
9.2989378 4.6215682 4.4285417 32
9.5148277 4.4419484 4.4659028 83.333336
9.7652378 4.2726965 4.5203795 176
5.1171718 4.8627911 4.5016966 225
8.8311386 5.011652 4.3580437 31
9.0932159 4.7991018 4.3975029 38.666668
4.755909 5.3013625 4.5753565 272.16666
5.0318308 5.0827303 4.573184 254
8.6297646 5.1801453 4.3320689 33
4.0898056 5.8000717 4.6064076 246
4.3436222 5.6277876 4.5975747 279
3.603817 6.1834755 4.6804276 273
3.8845403 5.9665108 4.6367249 275
2.5323849 6.5957484 4.6822548 225
2.6093073 6.5518084 4.6691432 212
3.1690924 6.5047393 4.7617693 246.8
3.4210234 6.3107743 4.7065477 279.5
2.3902235 6.7205162 4.7363787 205
2.8512814 6.672617 4.7939472 142
2.9448683 6.6616998 4.8070545 254
-0.42638117 8.8931751 4.8255591 165.33333
-0.036484033 8.8555584 4.786531 147.5
0.13171056 9.0585909 4.8901305 137
0.30871761 9.2691669 4.9992967 137
-1.1042024 9.8279333 4.7515087 128
2.8127556 9.7974443 4.7527971 31.5
-1.5969669 10.183834 4.9641252 125.5
-1.3117465 9.9857616 4.843811 123
2.3131449 10.164742 4.884387 24.333334
2.5918512 9.9519396 4.8055434 28
-1.9769812 10.466765 5.137332 128
-1.8180928 10.330308 5.0558438 124
1.5881844 10.557451 5.0331149 18.666666
1.9623258 10.395983 4.9723973 20.666666
-3.2888439 11.128054 4.9222693 11
-2.832221 11.091845 4.8473668 119
-5.9479928 13.150215 5.317584 15
-5.7184887 13.298673 5.3297224 19
-5.5120168 13.507033 5.366755 18
-4.641561 -18.158356 4.5755963 9
-7.1847606 -16.584482 4.5246305 10
-6.9976358 -16.708672 4.525888 8
-7.5661197 -16.358046 4.5298977 7
-7.3715029 -16.461748 4.5243502 6
-10.364314 -14.625689 4.6447096 8
-10.103197 -14.826298 4.6345477 11.5
-5.0700216 -14.095892 4.5173569 7
4.0883713 -12.664728 4.4756494 54
4.2546148 -12.653859 4.4865379 35
4.6907063 -12.667888 4.5322156 68.5
5.1127954 -12.844415 4.6320462 70.5
4.3870554 -12.543201 4.4629679 57
6.4473205 -11.808705 4.4865546 66
10.03998 -12.096649 4.3626165 13
10.363447 -11.888102 4.3761139 12
-0.3636947 -11.66788 4.698916 9.5
-0.14850341 -11.429193 4.5944262 31
0.68888181 -11.529075 4.6156826 89.333336
1.1914871 -11.64402 4.6625156 51
1.5477839 -11.640311 4.6676874 48.666668
1.831391 -11.616462 4.6665177 35
6.7477551 -11.517176 4.4475384 83.333336
10.705694 -11.554804 4.3709688 16.666666
-3.2404895 -11.02665 4.7380362 12
-2.9900627 -11.170408 4.7553682 9.5
0.057916537 -11.206938 4.498661 82.5
0.33147401 -11.271188 4.5174198 65
1.9503398 -11.061667 4.4530306 59.5
2.2472918 -11.161401 4.5063982 60.5
6.9564328 -11.24072 4.4016676 90
11.109527 -11.1491 4.3682818 19.333334
6.9250126 -10.893305 4.2974758 100
11.482482 -10.714541 4.3606172 22.333334
-2.370086 -10.155722 4.9015756 12
-2.1319864 -10.25303 4.9116592 9.666667
0.86921418 -10.178496 4.6837173 85
1.2054343 -10.401838 4.7909679 62
1.526902 -10.418067 4.8082924 72.666664
2.3405774 -10.276852 4.791368 84
2.776125 -10.18378 4.7875671 98.5
11.786299 -10.348385 4.3569956 23.5
-2.7280903 -10.027093 4.9004068 13
-2.5534453 -10.10731 4.9079657 10
-1.650869 -10.057269 4.7630415 44
-1.4437268 -9.9235153 4.6794977 69
0.3692272 -10.004952 4.6064205 89.333336
0.67398125 -10.031817 4.6160173 78.5
3.1458695 -10.08885 4.7846565 84.666664
3.4150028 -9.8939819 4.7324419 86
6.5872612 -10.078298 4.6890879 52
12.0818 -9.9761505 4.3552203 25
12.196285 -9.8245649 4.3545742 11
-3.5172064 -9.6178761 4.8683186 7
-1.2968819 -9.7406425 4.5813503 97
3.452359 -9.4448681 4.5440912 140
6.0334244 -9.7358103 4.4642038 52
12.393124 -9.6169777 4.3639178 21.5
12.579136 -9.4000149 4.3707938 20
-1.953745 -8.9787359 4.8965087 109
-0.79205823 -9.0423279 4.7891531 81
3.6615953 -9.1534166 4.4500155 178
12.698783 -9.2517223 4.3747964 15
-3.1694925 -8.5877581 4.9368935 113.5
-2.9332013 -8.7573195 4.9674292 126.66666
-0.55580401 -8.7741385 4.6311502 101.5
-3.6169665 -8.5040646 5.0056238 49
-3.3804638 -8.5172443 4.9528036 101.5
4.0922556 -8.255065 4.7215266 120
4.2614436 -8.3431854 4.7988434 76
-2.6978631 -7.8080974 5.0048857 82
-2.427789 -7.8368564 4.9580398 107
-2.0761917 -7.9960146 4.9734535 100.25
-0.0067068338 -8.0514193 4.7590337 92
4.6125326 -7.9408522 4.698379 179.5
-4.1565566 -7.5120349 4.696702 25
3.3368652 -7.6093154 4.8124323 104
4.8546596 -7.6036811 4.6123257 191.33333
4.9852381 -7.4093404 4.5640726 179
9.2501192 -7.6402717 4.671895 63
-3.7313545 -6.9898834 4.8669782 37
0.66076207 -7.136333 4.7238541 101.66666
2.4858935 -7.077239 4.8876019 85
2.6208591 -7.0546494 4.9003901 126
5.186141 -7.1401944 4.5090871 187
-5.6970735 -6.9273829 4.9925766 100
0.8088963 -6.9160128 4.5839982 84
1.1118761 -6.5969691 4.9044862 68
5.4188542 -6.8363814 4.4553146 178
8.0710554 -6.8386698 4.7448325 37
1.232697 -6.3833942 4.7617178 99.666664
1.3577743 -6.2254539 4.6620045 125
-6.7595954 -6.1192532 5.148334 23
-6.5877519 -5.8184795 4.9696193 83
1.5513622 -5.9695129 4.7571535 156
1.8653804 -5.5489097 4.7486634 147.60001
-10.529074 -5.0494976 5.281146 10
-6.0453453 -5.1130457 5.0347576 99
-2.3898828 -5.220367 4.8716698 52
-2.1713331 -4.9681783 5.1038022 37
2.0045969 -5.3232026 4.6085033 172
2.2864454 -5.0105004 4.9493394 121.5
-10.385541 -4.8242035 5.1862431 16
-10.207433 -4.5894198 5.0758815 18
-8.6136045 -4.7615714 5.035428 53
2.437036 -4.805017 4.837945 127.6
2.5756583 -4.5956426 4.7264476 145
-10.07542 -4.3815908 4.9899483 10
-5.5275192 -4.4319367 5.0465703 87.5
2.7120574 -4.4028482 4.6370564 121.2
-9.5663633 -3.9079323 5.3467674 84
-5.5508189 -3.8643801 4.8475833 158.66667
-5.0759201 -3.8533106 5.0677772 83
-9.4957047 -3.7429581 5.2876058 115
-9.3469324 -3.5516224 5.1865606 133
-5.6356373 -3.7209661 4.8503885 161
-5.0839963 -3.388037 4.8847647 118
-5.0055966 -3.5168591 4.8812356 125.66666
3.8062892 -3.443125 4.5977206 115.33334
7.9525862 -3.5359678 4.484849 138.33333
12.421278 -3.5557325 4.3852487 108
-9.1385717 -3.0899074 5.0225406 197.66667
-5.1816082 -3.2714658 4.9098721 127.66666
-4.6784868 -3.1526372 5.0113921 89
-4.6139936 -3.0656054 4.9224987 123.5
4.0437641 -3.1677299 4.6058364 104
4.1854744 -3.0083168 4.6241512 83
8.0863323 -3.3273191 4.5107589 152
8.2346134 -3.101866 4.545927 183.25
12.717128 -3.145211 4.4581866 121
-13.129743 -2.6318405 5.4106512 11
-11.451283 -2.6199305 5.4336658 84
-9.3739376 -2.8497663 5.1150818 183.5
-8.6476412 -2.6010892 5.3143191 194
-4.7818742 -2.8074636 4.9506369 121
-4.290298 -2.6486084 4.9900117 107
-4.2438459 -2.6681533 4.9574637 109
4.3800187 -2.7708783 4.6570506 87
4.5517569 -2.5517344 4.6931524 160
8.4451323 -2.8381228 4.6101842 159.5
8.5834188 -2.6566229 4.6550512 195.5
12.9087 -2.8631973 4.5078149 121
13.096106 -2.6556833 4.5621433 102
-13.073217 -2.4528005 5.3814721 8
-12.949467 -2.2642093 5.3256307 15
-8.5113134 -2.3324664 5.2054582 179.5
-4.4397759 -2.3514166 4.9998827 157.42857
4.6756845 -2.3375959 4.7094455 209.42857
8.8061647 -2.3803294 4.7353997 186.75
13.258131 -2.4388323 4.6089931 123
13.373935 -2.2929194 4.6438174 108
-8.580843 -1.9548143 5.2101598 158
4.8477559 -2.0075378 4.7377858 203.39999
4.9567614 -1.816008 4.7735286 192.5
9.0729628 -2.0469921 4.8393097 193
13.563039 -2.0720232 4.7027493 111.5
-12.464783 -1.7056696 5.1169138 80
-7.9215021 -1.6730862 5.3729048 214
-7.8354201 -1.5534706 5.306457 188
5.0698185 -1.5559545 4.8075557 156.57143
5.7027116 -1.4184756 4.8031116 223.5
10.086079 -1.5728714 4.6913943 76.5
10.167123 -1.3974495 4.7223768 108
-7.8787489 -1.0084189 5.3042049 95.5
-7.8098249 -1.247756 5.2694187 103.66666
5.2269278 -1.1723754 4.8731503 127.66666
5.3791409 -0.9738481 4.9820304 129
5.7962623 -1.1516566 4.8426256 155
10.24068 -1.1558995 4.7506428 101
-7.8975706 -0.86123455 5.3122849 110
-7.1759319 -0.72006404 5.381629 245
5.4231129 -0.91535795 5.0153356 124
5.9069223 -0.73932022 4.8971233 89.333336
10.352456 -0.78999728 4.7988973 106.33334
13.792824 -0.75393254 4.7766271 35.5
-7.1600361 -0.5382908 5.3672886 65
6.0076365 -0.35363448 4.9692087 83
10.470315 -0.35430527 4.8582306 100.5
6.0355144 -0.13865666 4.9952068 123
6.7069683 0.037723839 4.9964871 118.25
10.408903 0.980452 4.9136639 135
9.9870157 1.3076302 4.7504592 148
10.267226 1.0928138 4.8582568 136
9.6590757 1.5645853 4.6284389 186
8.4175081 2.1490593 4.699265 182
8.8799076 2.152667 4.9358211 182
8.9874077 2.0636201 4.9756761 187
8.2933636 2.9441915 4.8000479 130
8.5023193 3.1935403 4.9613061 105
5.2507958 4.502192 4.9043083 244.66667
5.4249148 4.3704462 4.9258571 225
9.2943296 4.5887427 5.0476398 180
9.4038067 4.5010085 5.070395 175
5.1563091 4.9400916 5.08743 183.5
8.8106031 4.9689131 4.9545612 153.5
9.0705605 4.7564702 5.0006795 181.66667
4.7386417 5.2623277 5.0786128 218.33333
4.9793572 5.0729232 5.0775785 197
8.3829336 5.2828112 4.8790264 154.25
8.6774216 5.1056724 4.9409065 147
4.0450592 5.7903037 5.1186028 235.5
4.3252168 5.5827646 5.0973587 227.5
7.8901577 5.6013002 4.7924242 105
3.6285546 6.1145291 5.1848078 230.75
3.8687084 5.9193301 5.1379862 239.33333
2.4947503 6.5899601 5.2094421 163.5
2.6855698 6.4775324 5.1721067 160.66667
3.1573768 6.4534864 5.2734003 215.2
3.4167731 6.2773643 5.2270432 211.5
2.3820653 6.6651359 5.2399979 135
-0.41453934 8.8334141 5.3868055 140.33333
0.02911365 8.8125448 5.352356 123.33334
-1.078437 9.744339 5.3301001 140
-0.81712282 9.5519686 5.2055779 136
2.7600052 9.7560253 5.3637547 23.666666
2.9841635 9.628808 5.3216467 28
-1.4967796 10.060401 5.5400929 112
-1.2832859 9.8938723 5.4293623 113.5
2.4795618 9.9306545 5.4283643 17.5
-2.1443794 10.624683 5.2305322 91
-3.1516433 10.947217 5.5176902 85.5
-2.4717 10.838057 5.3708262 92
1.152631 10.855489 5.1639371 27
-3.4166651 11.08465 5.622139 49
-2.8079526 11.040085 5.5095434 101
0.76191485 11.090541 5.2728071 22.5
-10.011601 -14.027234 5.3955998 13.5
-4.0390692 -13.939725 5.1418543 9.666667
-10.758377 -13.443471 5.4335117 7
-10.597774 -13.579967 5.4263163 9
-4.9014044 -13.471167 5.1182728 11
-5.5818939 -13.065668 5.1060376 14
-5.3614774 -13.213034 5.1133289 9
5.5307636 -12.972489 4.7191892 69.5
-5.8828921 -12.891488 5.1074762 9
-7.5703859 -11.853287 5.1578236 8.5
-8.0789604 -11.532275 5.1916995 10
-7.8060045 -11.742573 5.1826706 7
-8.4987793 -11.231427 5.2170606 13.333333
-9.3512287 -10.637477 5.2947578 9
6.3914876 -10.597222 4.8227239 52
-9.9352608 -10.243996 5.3678064 9
-9.6406174 -10.439534 5.3288898 9
1.9325264 -10.517595 4.8724074 103
2.790792 -10.239162 4.8130441 67
7.5618529 -10.173165 4.9306822 46
7.7593102 -10.180061 4.9781055 78
1.1624397 -9.8380003 5.1527243 90.5
1.4178212 -9.9389391 5.2142611 97
6.8214536 -10.03517 4.7240505 52
7.2276425 -10.099329 4.8326054 50.5
7.9310179 -10.149099 5.0086374 13
-1.6339039 -9.4097929 5.0713258 69.25
-1.2374907 -9.4930973 5.0662289 65.333336
-1.0089427 -9.5301208 5.0618148 60
2.8244936 -9.6050606 5.1613989 97
2.9452264 -9.3861752 5.0678024 90
-2.6671364 -9.039876 5.0526762 154
-2.4621935 -9.1570263 5.0728931 122
-2.1950758 -9.2747097 5.0856423 75
3.1094406 -9.1382294 4.9685049 94.5
-17.815228 -8.9112644 5.5918136 7
-6.3132863 -8.6478901 5.2342257 9
-6.0314569 -8.8142176 5.2051635 11.5
-2.7591672 -8.9508457 5.0266438 109
-1.099046 -8.5876141 5.160284 66
-0.73479986 -8.6162968 5.1388369 111
-0.4296149 -8.7781382 5.2096338 128
-0.16544396 -8.770524 5.1889009 68
3.2865012 -8.9443283 4.900003 125
3.5183399 -8.9085255 4.9209442 114.33334
3.9133539 -8.8062019 4.9438887 107.5
4.1693039 -8.6707354 4.9309058 89
8.7528791 -8.7785749 4.8207593 40
8.9638577 -8.5666389 4.8226309 124
-6.5109434 -8.475769 5.2384119 15
-4.8323574 -8.2521343 5.2410641 9.333333
-3.1663094 -8.1869669 5.3328009 65
-2.940881 -8.188467 5.2752357 105
-1.6264431 -8.2983046 5.0662804 103
-1.2925769 -8.4746799 5.1191931 86
-0.93744218 -8.5503006 5.1203814 90
3.2954874 -8.3155069 5.1850009 60
3.391598 -8.2674551 5.1779404 33
4.4536366 -8.4670515 4.8984203 116
4.605176 -8.3853931 4.8962345 115
9.128211 -8.3119335 4.8034186 99.333336
-7.2175117 -7.8954649 5.290204 11
-7.0360904 -8.085413 5.2865782 20
-5.5870442 -7.8071995 5.3076315 9
-5.2889123 -7.9924097 5.2803268 13.5
-5.0287762 -8.1270771 5.2497745 13
-3.2973306 -8.0861731 5.3136988 68
-3.0315292 -8.1299686 5.2662363 72
-1.652082 -7.826076 5.3734679 125.66666
0.44420856 -7.8603077 5.1971765 34
3.6286461 -7.8858461 5.0241294 94
3.9465363 -7.8242183 5.0670714 116.75
9.3228493 -8.0864801 4.8031001 72
9.5331802 -7.8738055 4.8144007 136.5
-7.7170296 -7.6531591 5.4020038 9.333333
-5.9452081 -7.504889 5.3184481 11.5
-5.7694483 -7.6601501 5.3143511 12.5
-4.390049 -7.5482903 5.378932 71.666664
-4.2283735 -7.6938725 5.3958731 78
-2.7294097 -7.4090476 5.3641777 131
-2.4999554 -7.4743848 5.3420639 96.75
-2.0449858 -7.6173038 5.3207679 119
-1.8289019 -7.7349415 5.3491373 123
2.5401409 -7.6693144 5.265728 84
3.0452273 -7.3761396 5.1886864 132
4.3048544 -7.6054196 5.0475826 118
4.6409693 -7.4536324 5.0669246 145.33333
8.4021454 -7.5660157 5.0676665 57
9.7272596 -7.647305 4.8197889 133
9.8696432 -7.4743028 4.8245649 128.5
-6.6725631 -6.9976916 5.4189649 6
-6.4077749 -7.145103 5.3634953 9.75
-6.1974683 -7.3506618 5.3565001 17
-5.1471748 -7.0546184 5.4298925 93.5
-4.8718576 -7.1214838 5.3506618 86.333336
-4.496438 -7.2165322 5.2524657 145
-2.8025815 -7.3329983 5.3386049 94
1.013467 -7.0353556 5.2155461 38
2.8600962 -7.2947669 5.0980978 108.5
3.2081745 -7.2733269 5.1654272 119.66666
3.4357352 -7.3111959 5.2449422 137
4.8787584 -7.3361697 5.081542 108
5.1720929 -7.2031479 5.1125665 109.5
5.3610444 -7.0133867 5.0876908 131
8.4497328 -7.3360734 5.016695 63
8.7090931 -7.1136022 5.0437202 65.5
8.9710712 -7.0613608 5.1219406 35
10.02781 -7.1291966 4.7986622 103.66666
-7.0985899 -6.6673932 5.4874487 12.5
-6.8883076 -6.8784838 5.4688816 10.333333
-5.6363993 -6.7263227 5.4909525 112.8
-5.3213401 -6.9317727 5.4457765 96
-3.6526301 -6.7133193 5.256083 127.66666
-3.4408815 -6.7059016 5.1729755 47
5.5728354 -6.9391632 5.128552 89.333336
5.8664403 -6.7101989 5.1355438 131.25
10.051455 -6.7864695 4.7334862 92
-6.0479903 -6.3820271 5.532578 121.2
-4.3380818 -6.2361383 5.2740822 109.66666
-4.0219431 -6.4277377 5.2425537 114
-3.7775209 -6.5573249 5.2152243 129
1.2067666 -6.3536358 5.27176 49.5
1.5045707 -6.273716 5.2481771 95.5
6.0765986 -6.4661126 5.1124234 125.5
10.330637 -6.3568358 4.7411819 135.75
-9.3681831 -5.87784 5.6235056 11
-6.4401803 -5.937778 5.546227 87.5
-6.1886992 -6.067904 5.4717746 115
-4.8461123 -5.9074101 5.3419037 103.75
-4.5744462 -6.0889125 5.304276 111
0.95090336 -5.8298893 5.3583946 94
1.2738215 -6.107296 5.0821519 119
1.5053742 -6.0170279 5.0453854 110.33334
5.5149651 -5.9255438 5.2355156 133
6.1174579 -6.0590358 4.9621925 152.5
6.1863284 -5.8400817 4.904079 173.5
10.63261 -5.9389968 4.7675867 128.66667
15.251982 -5.8973837 4.6160879 20.5
-10.673513 -5.446106 5.4043031 8
-6.2345467 -5.4054809 5.2401567 69
-5.4653463 -5.4056649 5.4232202 110
-5.253437 -5.5917592 5.3961797 123.6
-5.0259743 -5.759089 5.3578763 102
-2.6000812 -5.5024672 5.1674423 7
0.50505698 -5.5686932 5.0913506 57
0.70115614 -5.6559215 5.1811838 60
2.1190288 -5.3846717 5.2066493 81
5.7301645 -5.7311263 5.2414083 140
5.8333473 -5.629138 5.2434154 131
6.3755269 -5.6000338 4.8936882 174.75
6.5505576 -5.4153085 4.902792 162
10.879558 -5.6533427 4.8053565 116
11.006703 -5.4685907 4.8207073 147
15.528975 -5.5752511 4.6657386 18
-10.639277 -5.2645059 5.3610506 6
-5.8784041 -5.0158782 5.4872408 133
-5.6673808 -5.2076888 5.4485126 117.8
2.2005923 -5.1408329 5.0281134 128
5.9556942 -5.2209258 5.1255474 74
6.7201524 -5.160686 4.8914232 184
11.198036 -5.2303281 4.8533683 130
11.397675 -4.9920959 4.8916559 107
15.687068 -5.3120818 4.6898084 20
-8.5773764 -4.7106819 5.6492867 124.5
-5.7691555 -4.8017015 5.3363709 95
5.3154945 -4.7123775 5.1366491 141
6.8967004 -4.913178 4.8910584 193
7.0597095 -4.7173033 4.9080448 166.25
11.613078 -4.6738296 4.9290476 125.5
-10.000223 -4.3029251 5.6215305 9.5
-8.8017769 -4.3498468 5.6907134 109.75
-5.3505764 -4.2727857 5.4319081 68
4.7739697 -4.3288102 5.1889601 102
7.2684708 -4.4279213 4.9248657 182
7.4251976 -4.2240109 4.9472542 211
11.894597 -4.3739901 4.9983873 101.66666
16.499342 -4.3850656 4.8602433 15
-5.2159648 -4.061491 5.2505851 86
7.6219001 -3.980181 4.9857244 200.25
7.7874293 -3.7745621 5.0225496 209
12.247683 -4.088829 5.1010356 66.5
16.701172 -4.0071812 4.8999448 18
-13.762295 -3.5645795 5.7091265 7
-9.1571627 -3.3846104 5.7123046 131
-7.8834085 -3.6266971 5.6518068 141
-7.8352094 -3.7224772 5.6437321 64
-4.8461766 -3.5760777 5.3278828 93.5
7.937592 -3.5573742 5.0544233 178
16.878025 -3.7261889 4.9390321 20
-9.0590115 -3.2215827 5.6323228 195
-8.9509926 -3.0589941 5.5476413 155
-4.5011616 -3.1511943 5.4096508 88.333336
8.1123371 -3.3479066 5.1051168 203
8.2862682 -3.1318846 5.1600366 155.25
-11.529896 -2.7884288 5.4801526 29
-8.7704229 -2.8170748 5.4119539 164.5
8.48804 -2.8639927 5.2261887 159
16.189384 -2.7576571 4.7158999 12
-8.3075438 -2.2461326 5.6844144 177.5
-8.076828 -1.9175408 5.4978743 187
9.2346764 -1.8513608 4.9069867 173
13.742272 -1.8445692 4.7596869 96
-12.358704 -1.6419158 5.815064 108
-12.186403 -1.388523 5.7306538 115
9.3106575 -1.7502158 4.9393492 190
9.4686842 -1.5442617 5.0095711 181.33333
13.995809 -1.5333539 4.843565 96.666664
-12.068605 -1.2237703 5.6741681 113
-7.5360246 -1.2351249 5.6720562 197
-7.3887005 -1.0218487 5.5504847 207
9.6761084 -1.2804104 5.1060891 146
9.8673677 -1.0643663 5.2000294 141.5
13.856516 -1.010412 4.7956991 33
14.167262 -1.2060041 4.9017463 64
-11.778289 -0.82680672 5.5386033 126
-7.2943897 -0.8703199 5.4741969 194
5.5658979 -0.73525083 5.1299901 127.4
9.9827108 -0.89471233 5.2576618 149
5.7501593 -0.55261666 5.2875676 132
5.8365803 -0.42049086 5.3637385 131
12.799764 -0.17557138 5.1764321 84
6.1197548 0.0059133619 5.071002 132
6.2050543 0.11772113 5.1483865 147
6.7357397 -0.063394316 5.0121717 151
10.709475 0.091488779 4.982831 145
13.914868 0.00021760166 4.837326 27
-6.4563379 0.50511092 5.4368639 95.75
-6.1561203 0.57561505 5.7665744 131
6.3834324 0.31588584 5.3233776 142.33333
6.7274303 0.42582995 5.0521612 101.4
10.886172 0.49121428 5.0921741 131.5
-10.462901 0.94175756 5.655725 97
-6.4726267 0.83559608 5.4943819 101
-5.9774985 0.82502502 5.6431098 115
6.835331 0.84892273 5.1844225 129.5
10.628014 0.80606776 5.0008659 135
-10.462294 1.2716283 5.6859837 68.333336
-6.4395132 1.0797989 5.5076389 93.5
-5.7622447 1.2702999 5.5411215 88.400002
7.0443563 1.1770148 5.3907294 153.5
7.5127501 1.2239037 5.1495404 159.39999
9.8135319 1.3915001 5.3070006 143
-14.354821 1.7039155 6.0094342 95
-10.479783 1.6733084 5.7390556 60
-5.6668906 1.6466806 5.5581002 52
-5.2561588 1.72429 5.7912569 108.66666
7.4877176 1.5943613 5.1981964 134.33333
9.3306293 1.7879039 5.1091113 154
9.5647135 1.5926199 5.2032828 160
-14.144956 2.0364525 5.9525676 77.5
-9.4207649 2.2145491 5.9092135 114
-5.571219 2.0099142 5.5928297 56
-5.1142526 1.9339015 5.7347851 98.25
-4.9716816 2.1378956 5.6854358 108.66666
7.6526508 1.9718022 5.383306 113
8.3457899 2.1091506 5.2359452 155.66667
9.1581516 1.9278749 5.041503 182
-14.111593 2.3911219 5.9727006 42
-9.3190079 2.3758683 5.8783779 137
-5.5261459 2.3164539 5.6681581 135
-4.8048301 2.4401941 5.6746016 63.57143
8.0906792 2.3970628 5.1512494 166.33333
-14.099888 2.8422689 6.0153866 35
-9.1331625 2.8227403 5.8583784 78.75
-4.6667094 2.7176404 5.6940193 68.5
-4.5693488 2.9009733 5.7124429 57.25
8.2542725 2.7949944 5.3364272 107
-9.0474882 3.2374494 5.9005375 68.333336
-4.3784389 3.2333646 5.7537432 51.714287
4.6642752 3.2992735 5.5262771 103.8
-8.9238491 3.6636825 5.9353976 62.333332
-4.2427797 3.4814553 5.8043113 47
-4.0837722 3.669287 5.8103666 44.666668
4.518846 3.4955873 5.5451555 135
-3.9291849 3.8617787 5.8313179 31
-3.8017743 3.9836669 5.8295479 67.5
5.1146398 3.8280313 5.5745463 142
9.7432375 4.2329044 5.1466718 144
9.8611889 4.1420703 5.1753359 156
5.2353716 4.5038629 5.4538212 163
5.4395952 4.3055534 5.4588742 192.33333
9.5558748 4.3605518 5.0987887 172
4.5179033 5.3794308 5.6235986 214
4.7920623 5.1660562 5.618423 185.16667
8.3149786 5.2884398 5.4891419 130.33333
4.0294385 5.7383327 5.6535645 166
4.328763 5.5357242 5.6424704 203
7.6809292 5.7906246 5.4003162 178.5
7.9672704 5.5593653 5.4348345 159.75
7.537497 5.9027615 5.3844872 189
-15.93481 6.264298 6.2479696 23
2.5228653 6.4996009 5.7294312 132
2.6795783 6.4247932 5.7101974 148.66667
-0.065399572 8.6185932 5.8556967 116
-0.67711103 9.41082 5.7535634 128
0.37762505 9.2562819 5.6120944 102
-0.86648661 9.5353184 5.8443561 117.5
-1.6414653 10.15916 5.6086903 114
2.2553122 10.092579 5.4953384 21
-2.2635841 10.610276 5.9261527 89
-2.0213425 10.426757 5.796936 102.5
-1.7926427 10.277491 5.6892252 122
1.594815 10.449884 5.6468687 114.33334
1.9710114 10.316814 5.5948954 92.333336
-2.4242694 10.705647 5.9990959 95
0.84536451 10.979346 5.9132347 130
1.1638685 10.747649 5.7932229 106
-6.7201486 12.696756 6.1324778 72
-6.5190201 12.895036 6.1650009 72
-5.8815961 13.014867 6.0857744 83
-6.1369014 13.140732 6.1820035 40
-5.7354608 13.125155 6.1007781 61
-15.182924 -14.741914 5.6501541 5
-15.526868 -14.353595 5.668745 5
-5.2128592 -12.711029 5.7201653 9.666667
-4.8401346 -12.906141 5.7203693 7
-5.5683966 -12.481967 5.7092824 9
6.8754702 -12.048015 5.4060192 23
-7.1584558 -11.424481 5.7195315 16
-7.0210047 -11.514912 5.7136865 11
-7.85605 -10.986533 5.7693868 13
-7.6441483 -11.114803 5.7504959 11.5
-7.2942681 -11.331611 5.7250061 7
6.6200719 -11.281919 5.0976257 17
-8.2715588 -10.715036 5.8062048 7
-8.0686331 -10.857755 5.7905111 12
1.9687976 -10.246243 5.403502 81.5
2.2875557 -10.23551 5.4228806 90
-9.4475613 -9.7923927 5.9100876 8
-9.1895533 -10.003701 5.8841209 10.5
1.6798614 -10.040642 5.2797532 76.5
2.4420369 -10.071722 5.3540754 94
2.6421835 -9.8548164 5.2653093 97
3.3171654 -8.9939966 5.5598717 110
-0.030710891 -8.595437 5.6925302 58
3.3561006 -8.7741756 5.4465947 109
-12.410193 -8.3486805 5.7735949 8
-0.82199305 -8.2190771 5.5058761 109.66666
-0.48268071 -8.3783207 5.5781341 89.5
0.072033979 -8.54035 5.6521811 79
0.17503186 -8.5633116 5.6641617 61
8.6746874 -8.4983177 5.4387655 54
-1.4738348 -7.9208889 5.4026413 135
-1.2443776 -8.0267887 5.4353266 111.5
-1.0119501 -8.1347246 5.4730544 94
8.503521 -8.0359735 5.2417188 58
-1.666201 -7.4698005 5.7416954 91.25
3.9295437 -7.4184084 5.4434152 101.33334
4.2904506 -7.4435129 5.5662909 95
-2.3872166 -7.0846848 5.652739 139.66667
-2.0635576 -7.2658305 5.6905756 146.2
3.6123157 -7.3419962 5.3099585 110.5
4.5090499 -7.3103943 5.5614371 103.5
4.7089033 -7.1485023 5.5403204 127.33334
9.255621 -7.1066804 5.2359109 36
9.5636854 -7.1619897 5.3618259 34
-3.2550561 -6.6033158 5.6253538 98
1.0745242 -6.7578273 5.5845952 58.5
4.8661313 -6.9277892 5.4774499 104
5.0234575 -6.7170939 5.4256005 114.33334
-9.390605 -6.3862987 5.7521071 6
-3.8428779 -6.1979156 5.6172676 196
-3.6247613 -6.3517275 5.6169095 213
-3.3658741 -6.5262923 5.6194053 210
0.34046766 -6.2133865 5.674057 51
5.2283769 -6.4144831 5.3519731 120
5.3625364 -6.1918688 5.2967672 99
-8.0871868 -5.8378201 5.6901217 11
-4.3631973 -5.8582497 5.667264 221.66667
-4.0643597 -6.0508952 5.6327114 203.2
0.44305074 -6.0940342 5.566627 75.5
1.1372222 -5.8702898 5.4170532 83.75
1.5404079 -5.8688326 5.4818273 98.400002
1.9353613 -5.9229331 5.6164751 96.800003
2.2302988 -5.9767723 5.740828 85
-8.4500628 -5.5624042 5.7954655 6.5
-8.2071486 -5.7723145 5.7307997 10
-4.8217416 -5.5039425 5.7158976 198.25
-4.5737729 -5.6941724 5.6842146 201
5.351346 -5.5394788 5.5647831 89
6.0093164 -5.528161 5.2822633 108.5
10.950268 -5.4554596 5.5210376 75
-8.6704931 -5.2599792 5.8295555 8
-7.602047 -5.0380344 5.8579679 92
-5.2486219 -5.171526 5.7927427 187.66667
-4.9977603 -5.3652596 5.7421188 182
4.7898493 -5.0678277 5.6106539 86
5.3502684 -5.0954132 5.3400698 78
5.4309311 -5.256084 5.4623876 99.666664
6.4182353 -5.1702213 5.3362803 136.39999
10.803217 -5.0611243 5.3899851 75
-7.867744 -4.6085138 5.885994 88
-7.7617331 -4.8070498 5.8807526 82.666664
-5.6268697 -4.8424144 5.8695164 188.8
4.8768902 -4.7503867 5.4799762 85.199997
5.7131758 -4.8275213 5.4090805 119.66666
6.0210314 -4.7876911 5.5644207 73.5
6.2007484 -4.7529631 5.6525383 70
6.7162976 -4.7791872 5.3428273 150
10.752285 -4.7254229 5.3127532 60.333332
-8.0429296 -4.3622608 5.9243727 83.666664
-7.8082514 -4.3187985 5.7732787 112
-6.8893647 -4.2496066 5.8247142 138.5
5.1811743 -4.425478 5.4873953 102.5
5.4824533 -4.3554277 5.6403456 58
6.9213748 -4.5608678 5.3757877 113
7.0603199 -4.3557615 5.3847384 129.75
10.721684 -4.4062576 5.2495785 34
-9.274333 -3.9589429 5.873734 117
-9.0255213 -4.1193857 5.7660375 146
-8.1903524 -4.1419582 5.9570751 81
-7.2246761 -3.977879 5.9598756 126
-6.9819884 -4.1304774 5.8465838 114
7.2674389 -4.0745072 5.4140253 149
7.4308538 -3.8793302 5.4518113 155
10.859139 -4.1597657 5.2725053 36
12.682926 -3.8127341 5.2410655 98
-9.4948444 -3.6433871 5.9430161 119
-9.4003248 -3.7410903 5.9059544 98
-8.088728 -3.4812834 5.7476678 132.66667
-7.5330443 -3.447696 6.0236716 156.5
-7.3527889 -3.7012763 5.9669018 148.5
7.6135736 -3.6334145 5.4936523 149.25
7.7703261 -3.4273689 5.5358486 153
12.833717 -3.6055369 5.2816205 73.5
12.961651 -3.3893507 5.3143005 110
-8.6722412 -2.9916663 6.0241027 121
-8.3995953 -3.1315308 5.8752861 127.66666
-8.1983576 -3.2908392 5.7778554 133
-7.714355 -3.3025215 6.1136942 213.5
7.9582143 -3.1738267 5.5934286 116.6
13.141965 -3.1828208 5.370193 96.5
-11.061932 -2.7001653 5.9705343 68
-11.033719 -2.8384891 5.9671965 45
-8.7744045 -2.7860188 6.0579448 143.33333
8.0875502 -2.7314756 5.5856857 112.75
8.6454515 -2.6878877 5.2878056 151.5
13.289359 -2.964673 5.4141769 62
13.407113 -2.7365217 5.4481106 73.5
-11.54019 -2.2913899 6.1919837 88.5
-11.197285 -2.513514 6.0271454 68
-8.4224825 -2.4458055 5.7838616 158
7.4331446 -2.27178 5.6874609 99
7.9728065 -2.3783159 5.453413 68
8.3075485 -2.2620218 5.6493883 101
9.2108927 -2.3847413 5.5700855 106
13.609262 -2.4364326 5.5142765 85
-13.004619 -1.9736397 6.1233172 12
-10.088368 -1.841417 6.0880547 100
7.2234631 -1.835542 5.4670792 82
7.4732857 -1.9943832 5.6695852 94
9.3845997 -2.1320698 5.6424179 114
13.585922 -2.0098088 5.4906902 37.666668
-10.32334 -1.7520869 6.2219105 95
-7.7223539 -1.5134395 5.8306341 172
7.600522 -1.7391739 5.7252035 93
13.619713 -1.0967478 5.492065 44.5
-11.615138 -0.76466322 6.1927519 100
-7.0926533 -0.69360256 5.9144635 158.5
-5.8658586 -0.62782043 6.0332236 126.5
-5.7984548 -0.73141277 5.9695916 68
10.109349 -0.78328496 5.3232241 121
10.199302 -0.66659224 5.3703756 129
13.470633 -0.7573486 5.4343958 72.5
-6.9979944 -0.55180156 5.8334575 162
5.9967413 -0.25290388 5.510664 118.5
10.360874 -0.42551348 5.4579163 128.66667
12.941464 -0.33438396 5.2290983 56
13.128488 -0.49843228 5.3007159 68
6.1050415 -0.11168073 5.6140103 117.5
10.555243 -0.17936146 5.5656056 107
10.686451 -0.05255188 5.6388683 96
-6.2768822 0.3878243 5.8545089 112
-6.2116823 0.50193518 5.8079171 127
6.5140471 0.47867441 5.4484468 123
6.5975394 0.56451589 5.5278459 110
-10.366117 0.90559751 6.298491 125
-5.852591 0.89648914 6.1490331 73
-5.7969675 0.96326977 6.1071033 85
6.7499466 0.74199474 5.6782308 124.66666
10.429823 0.9027496 5.5785007 135.5
10.648642 0.72770894 5.6785488 133
-10.251001 1.0894511 6.2473927 126
-10.113759 1.2666608 6.1846857 128.5
-5.6176548 1.2271849 5.9931207 76.14286
7.1820035 1.3337533 5.5204883 147
10.023536 1.2356759 5.3988261 119
10.208586 1.0710309 5.4783058 171
-14.547894 1.4528784 6.0685778 68
-9.9386482 1.4978205 6.1081643 96
-9.7758474 1.7242709 6.0418882 110
-5.4478731 1.485253 5.8979311 68
-5.3779078 1.576772 5.8588238 87
7.2773852 1.4425011 5.6115618 136
7.4209371 1.6114877 5.7514358 114.5
9.2544193 1.7513624 5.6975021 155
9.3837204 1.6584582 5.7583213 189
-9.5887222 2.0018852 5.9730382 114
7.8008041 2.1613178 5.5216198 101
8.9527378 2.0336213 5.5710039 142
9.0915155 1.891907 5.6262879 170.5
-18.084921 2.5251179 6.5491242 12
8.0358677 2.4386125 5.7392373 99.333336
-17.933666 2.8447325 6.5228214 11.5
-13.071287 3.2966192 6.4680195 84
-8.6941252 3.0947306 6.3318768 120
-8.5484715 3.2869678 6.2910075 121
8.359951 3.1740522 5.4931364 118.25
-17.458115 3.5523524 6.422852 14
-17.34914 3.7549143 6.405683 18
-12.865697 3.5876176 6.4184299 74.666664
-8.3325357 3.5702317 6.2362919 112.66666
-8.2104902 3.7653584 6.2194891 122
4.493391 3.7010236 5.6641331 54
5.1688399 3.7709067 5.5771847 126
7.5852847 3.685626 5.8410449 150.66667
8.1284504 3.7255259 5.5251288 82
8.2293272 3.5320959 5.52179 84.666664
9.305274 3.7558699 5.4915342 96
-17.277309 3.964411 6.402936 8
-12.645788 3.8690252 6.3638759 91
-12.499603 4.0813518 6.3343215 82.5
-7.9874473 4.0339236 6.1704221 139.60001
-3.8880041 3.9204171 5.8445659 70
-3.6874847 4.120327 5.8541498 76.666664
4.9431772 4.0918961 5.6224432 125
5.027998 3.9586635 5.595736 142
7.1638136 4.0364766 5.7266474 124.8
7.4347372 3.8394079 5.8077192 167
8.0569363 3.9940822 5.5723977 103.25
9.2690496 4.0064559 5.5389962 80
-12.300374 4.3586845 6.2949491 96
-12.15138 4.5637388 6.2672906 99
-7.6956773 4.4511728 6.1407862 150.75
-3.5389357 4.2737508 5.8743873 56.666668
-3.3041177 4.4941635 5.9046869 61.166668
4.9450002 4.3019004 5.7540655 46
6.8192406 4.4121051 5.6873636 83.599998
7.9133635 4.4157381 5.6402159 93.5
9.177702 4.3716526 5.5955043 94.333336
-11.984704 4.845664 6.249701 70.333336
-7.4987116 4.7241073 6.1275392 130
-7.3607764 4.9005637 6.1175528 141
-3.1048744 4.7102304 5.9676471 23.5
-2.9028759 4.8650551 5.9900789 45
5.144228 4.9040008 5.6364174 171.25
6.4670296 4.891438 5.713964 105
6.6016641 4.7441869 5.7165933 114
7.7202945 4.8820643 5.7135572 56.333332
7.8100801 4.6756654 5.6807404 88
8.8290863 4.8857951 5.5870905 152.66667
9.0497332 4.7237854 5.6383815 174
-16.463171 5.3181353 6.2885332 18
-11.858558 5.1427517 6.2558451 40
-11.814384 5.2997923 6.2703757 40
-7.1633911 5.1705956 6.1171598 105.75
-2.6902509 5.082386 6.0740523 48.666668
-2.5302248 5.2584558 6.158782 66.666664
7.5365057 5.2297831 5.7607007 73.75
8.5236063 5.1335268 5.5288906 163
8.6137238 5.0455317 5.5403223 130
-16.349751 5.5066543 6.2760143 18
-16.226238 5.6904144 6.2603121 13
-11.759426 5.6324301 6.3208122 42.666668
-7.0573225 5.4401226 6.1726775 46
-6.8684421 5.6485581 6.1639032 69.5
-2.8560145 5.6645169 6.0344777 60.333332
-2.610867 5.8072472 6.0494347 35
1.6443716 5.573874 5.924655 93
1.9053431 5.4923062 5.9079466 91.75
2.1840024 5.5563283 6.0479054 63
4.1523547 5.686377 5.6683383 157
4.2935114 5.5847673 5.659409 172
7.3253727 5.5621581 5.7983212 89
7.3918548 5.4713502 5.7909679 105
-16.117506 5.8781152 6.2509632 15
-11.691717 5.9630103 6.3683004 45
-6.681458 5.9321575 6.1954541 71
-6.5535097 6.1210842 6.219501 74.5
-2.3949146 5.9217038 6.0639358 40.400002
-2.0511997 6.1098156 6.1075463 61
2.1116383 6.1896753 5.9864287 84
2.3402615 6.1015158 5.9661789 75.5
3.5835407 6.0920038 5.7366705 189.2
3.8682444 5.8877511 5.6946392 204.33333
-6.3665791 6.414731 6.2701845 62
-1.9774393 6.2145734 6.175787 33
-1.7443371 6.3053746 6.1875806 94.666664
2.4556994 6.5679502 5.7674341 109
2.9274375 6.5546541 5.8764706 140
3.1890168 6.380125 5.8200455 200.5
3.3739398 6.2565532 5.7855706 210
-6.0338044 6.8126721 6.3148923 58.200001
2.3861356 6.6327143 5.802918 120
-5.6374593 7.2372622 6.3646431 57.599998
-1.6419538 7.1335702 6.2266216 76.25
-1.2389902 7.2469492 6.2395563 87.800003
-5.3790064 7.4717917 6.3847632 82
-0.39715877 8.7711124 5.9776988 124.66666
0.098861039 8.7901163 5.9655333 95.5
0.26936683 8.9846563 6.0924802 94
0.38926178 9.1566582 6.2067585 86
2.9326892 9.4086237 5.8567352 159
-1.129935 9.726119 5.9841523 122.5
2.4478452 9.7401237 5.9942851 140.5
2.7176495 9.5485678 5.9116836 136.66667
-1.6223854 10.08145 6.253552 104.66666
-1.3341711 9.867178 6.090591 102
2.0025713 10.066233 6.148849 99
2.2861025 9.8709736 6.05582 130
1.7168916 10.288351 6.262156 99
-3.2852051 10.947453 6.26441 71.5
-2.8926494 10.865014 6.15488 113.33334
0.71206677 11.043187 5.9474354 79
-6.9701667 12.781009 6.2162886 7
-7.5832095 13.115879 6.4718351 12
-6.3134999 13.090598 6.197319 53
-5.4815617 13.448363 6.1796331 20
-5.2740722 13.66534 6.2283096 14.5
-5.043602 13.832126 6.2553229 5
7.0063648 -12.996293 5.7561951 18
7.172925 -12.929347 5.7624154 31
10.334355 -10.618134 5.7565918 27
2.4425473 -10.005607 6.0000949 56.5
2.6619661 -9.8708935 5.9495926 91
2.8546596 -9.658721 5.8555417 84
2.9884105 -9.479332 5.7743907 80
8.9600983 -9.4353104 5.824718 49
3.1574037 -9.2387199 5.667562 88
8.8640146 -9.112011 5.6913877 46
8.7982035 -8.8292809 5.5813327 48
0.34252483 -8.2671089 6.1006112 69
-11.899429 -7.8389702 6.3443608 7
-11.715598 -8.0313416 6.3114443 16.5
-12.105268 -7.6581645 6.3907223 12.5
0.82638252 -7.4610815 6.1380758 31
0.93276536 -7.241189 5.9653006 30.5
10.083155 -7.2704206 5.579915 81
0.087188125 -6.7028494 6.1247916 33.5
-3.1885743 -6.2501988 5.968987 130
0.23787059 -6.4574251 5.8970351 31
5.3258648 -6.4414544 6.0367899 96
5.3845601 -6.2058353 5.9343247 75
11.281734 -6.3161993 5.8226051 77
-3.8631585 -5.8086905 5.9898429 165
-3.6214461 -5.9817266 5.9844117 190.66667
-3.3745632 -6.148037 5.9801435 170
5.3999004 -6.0042357 5.8329415 82
11.17422 -5.9944291 5.7149158 77
-4.344059 -5.4601145 6.0338345 180.66667
-4.0760508 -5.6692138 6.014328 180.39999
4.8002253 -5.5886154 5.9267664 67.5
5.3672433 -5.7574949 5.6861029 93
11.06646 -5.6807361 5.6105452 64
-4.8202229 -5.0968013 6.1106634 163.2
-4.5498228 -5.308032 6.0642633 180.66667
4.8110528 -5.2746849 5.743444 63
-5.2208924 -4.765717 6.1955776 171.8
-5.0206299 -4.9335575 6.1493654 152
6.5306005 -4.7042279 5.8255591 122.5
6.6377764 -4.6038566 5.8488431 122
-5.5639043 -4.430028 6.2683764 130
-5.4066472 -4.5829902 6.2302713 168
5.7004495 -4.3659682 5.784904 64
6.8370528 -4.3888516 5.8878679 133.2
12.139279 -4.4832301 5.868259 44
-6.7017441 -3.8363793 6.2031732 167.5
7.1279716 -3.9979529 5.9318752 131.2
-7.0864429 -3.4403675 6.3628554 213
-6.907299 -3.6207705 6.2842398 180.25
7.3277259 -3.7177351 5.9706774 142
7.4651413 -3.5119011 6.0008044 144.33333
-7.943018 -3.0564942 6.2191482 166.5
-7.8288102 -3.1808805 6.1656604 215
-7.2704687 -3.2551608 6.4508748 200.25
7.6041436 -3.2155831 6.0143247 133
-8.2795153 -2.666254 6.384016 167
-8.1310492 -2.8425996 6.3099742 176
7.0083809 -2.6130927 6.076261 127
7.5484724 -2.7589307 5.866734 119.5
-8.6481819 -2.2030296 6.5811925 136
-8.4657164 -2.4384279 6.4821043 169.5
6.9198475 -2.256882 5.9239783 117.5
6.9889798 -2.4649389 6.0251408 103.5
7.5229788 -2.3653893 5.7687631 106.66666
12.721134 -2.3794036 5.9286318 89
-11.829977 -1.8951538 6.3249488 49.5
-11.729877 -2.10355 6.2813282 88
-8.1754875 -1.8675439 6.1974201 120
6.9112029 -2.0287628 5.8705344 119.33334
7.5344591 -2.1074209 5.7311096 132
8.4927931 -2.0951416 5.7462039 116
8.6944733 -1.9252908 5.8567724 119
9.5459661 -1.9282993 5.7178531 93.5
-12.106162 -1.5554808 6.460146 68
-10.704281 -1.4085857 6.4334931 66
-10.497602 -1.5808464 6.3171854 114
8.0442476 -1.7398502 6.0458112 30
8.8868837 -1.6899183 5.9591551 120.33334
9.0333853 -1.4948549 6.039288 81
9.6058826 -1.5827937 5.7279291 98.666664
13.962871 -1.7220228 5.6343727 74
-12.151117 -1.1799426 6.4777112 82
-10.747449 -1.1428545 6.4530015 80.333336
-7.5778098 -1.0769916 6.3312836 96
-6.2516961 -1.0286599 6.452754 72
9.1073933 -1.3950852 6.0812268 94
9.7234545 -1.3032527 5.7823825 96.5
9.8214083 -1.0765703 5.8322802 73.5
13.893157 -1.3728968 5.6023602 52
-10.898459 -0.88572729 6.5401158 102
-7.5237231 -0.97358775 6.2811041 97
-6.2391376 -0.94641364 6.4326978 110
9.8410368 -0.77971113 5.8390393 87.666664
-6.0348268 -0.53108448 6.2025466 72
9.9049644 -0.42613965 5.8782458 86.333336
6.3418031 0.073047936 5.8411417 39
10.050182 -0.068077147 5.9738493 103.66666
10.803647 0.07733573 5.7057586 44
10.02936 0.41903794 5.9970531 90
10.862 0.54419619 5.7772541 121.5
11.246737 0.28473574 5.948947 64.5
-9.7724619 0.83191746 6.6384039 85
-6.275279 0.67827737 6.5380363 49.5
-6.1293349 0.78068888 6.4073048 55
9.0907412 0.86665362 6.1413355 99
9.6744261 0.75827533 5.8186488 81
9.8052206 0.64949179 5.8864017 79
-14.23067 1.2157921 6.7774286 45
-13.99188 1.0202911 6.6514773 30
-9.7908115 1.2058532 6.6928582 58
-8.3269663 1.209041 6.37151 46
9.1000051 1.0340805 6.1674094 41
9.7389774 1.3589408 5.9239268 112
10.010568 1.1499015 6.0583606 117.33334
-8.6328964 1.4198229 6.6305647 47
7.5624881 1.7858515 5.8927693 107
9.5741911 1.5131867 5.8483901 148
-9.3879328 2.002897 6.5441785 39.5
7.898037 2.0676842 6.2021856 102.66666
-13.945759 2.2487562 6.7388325 62
-13.753501 2.3937588 6.6656761 74
-9.6229887 2.2428839 6.7419376 76
-9.1736612 2.4430971 6.4892273 92.25
7.6560555 2.304009 6.0917921 93.333336
-13.503119 2.6981976 6.5859289 91
-13.357246 2.9293473 6.5483694 70
-8.8753595 2.8479233 6.3869214 97.75
6.7459888 2.9411292 6.2956672 118
8.2898731 2.7356493 5.976759 94
-13.169369 3.1473644 6.4916339 90
6.445641 3.1423681 6.1565514 100
6.6466537 3.0427155 6.2630858 123.5
8.037508 3.3180881 5.9904871 141
8.3512383 3.0966763 6.1166058 143.33333
-5.8609924 3.7976463 6.6359205 53
7.2903218 3.6315846 6.2922149 91
7.8156133 3.5082977 5.9174876 165
4.847568 4.0933719 6.1774077 25
6.9285808 4.1652298 6.2877188 106.5
7.0313549 4.0540986 6.3027301 117
6.4794002 4.5129662 6.1775489 149
6.7145963 4.3205314 6.2268634 103.33334
-7.2909536 4.8318815 6.7380648 104
4.951508 4.993434 6.2100797 134
5.1563482 4.8297639 6.2206316 142.2
6.3204865 4.6361122 6.1451869 167
-7.0991154 5.1026173 6.7397313 105.5
-6.9530745 5.2692595 6.7285638 94
-2.4301801 5.3990855 6.2445154 50
4.4994869 5.3294077 6.2008119 126.5
4.7455001 5.1524763 6.205997 135.60001
-11.175159 5.688282 6.8822918 97
-6.760386 5.5393286 6.7451878 99.5
-6.5999022 5.7660341 6.7656436 100
-2.3180554 5.5233288 6.3136086 60
-2.1431489 5.7108998 6.4222112 68
2.3346 5.7281222 6.2595673 56
4.0235176 5.6993766 6.2467556 134.75
4.2970676 5.4893942 6.217001 132
-15.500865 6.0677109 7.0325289 17
-11.078613 5.8149209 6.8702502 120
-10.957955 6.0166645 6.8688254 118
-1.9679754 5.923903 6.5641179 71.666664
2.4799974 5.8738332 6.4454713 38
2.6972854 6.2078576 6.1581717 56
3.3617594 6.1981912 6.3719645 163
3.6092935 6.0163732 6.3201671 174.66667
3.8590083 5.8417592 6.2838955 172
-10.713099 6.3264942 6.8433199 117.33334
-10.517902 6.5723028 6.8265266 110
-1.5390586 6.5200248 6.3266916 94.666664
2.8816423 6.4123583 6.3892655 47
3.1471822 6.3584466 6.4305611 134.39999
-14.893729 6.815156 6.9396038 11.5
-10.334117 6.8233294 6.8210583 95
-1.2948462 6.8308249 6.5537133 91.75
-14.708103 7.0656552 6.9193912 17
-14.527001 7.3157721 6.9031825 17
-10.063766 7.2021198 6.8227339 110.33334
-0.97271848 7.3558102 6.2853603 80
-14.29809 7.6530538 6.8901711 20
-9.8813553 7.4533048 6.8269691 117
-9.7381468 7.6366992 6.8285875 106
-5.2317996 7.6683578 6.4363823 82
-0.74381268 7.5980954 6.4569192 93.333336
2.5014925 7.5382314 6.5473175 96
10.015284 7.4860196 6.2011023 20
-14.052786 7.978529 6.8724499 22.5
-9.5440273 7.8787875 6.8317719 108
-9.3999996 8.0620022 6.8378124 119
-5.0698752 7.8489375 6.4762344 103
-4.9197125 8.0556946 6.5400219 90.333336
-0.53457898 7.8026896 6.6039276 114
2.4101877 8.1589823 6.3200502 68
2.6627638 8.0795107 6.3046918 57
-13.852373 8.211112 6.8530397 70
-13.693252 8.4666834 6.8560042 64.5
-9.1767311 8.3840895 6.8665228 101.5
-4.7255921 8.31602 6.6232452 82.5
-4.5545163 8.5074816 6.6787663 79.5
-0.79054224 8.3223133 6.3583169 76
-0.42553279 8.3838015 6.3705354 76
-0.11055286 8.4931364 6.4320736 91
1.2325695 8.5268316 6.4630857 93.666664
1.5900997 8.3888626 6.3871875 78.25
2.0007789 8.271656 6.3445158 76.25
-13.499749 8.7002468 6.8435364 64
-13.38098 8.8617868 6.8414679 41
-8.840457 8.8190279 6.9002719 104.66666
-4.3841476 8.7100353 6.7450705 83.5
0.10538049 8.7060204 6.5833817 95
0.93315119 8.7646351 6.6270518 103
1.0320113 8.6617479 6.5536051 96
-13.255394 9.1399946 6.8672915 30
-8.6546164 9.0778294 6.9312172 101
-8.5393934 9.1849337 6.9309635 81
-0.71725142 9.3530951 6.3953557 107
0.51178944 9.2965164 6.30019 75
2.4363453 9.3583736 6.4550061 55
2.7834845 9.2592735 6.4359326 65.333336
-13.091542 9.5174179 6.9077454 35.5
-1.1740158 9.6955395 6.6725035 81.333336
-0.90977621 9.5159702 6.5230207 94
0.76770878 9.5574436 6.4776182 57.5
1.1420395 9.6721439 6.5633302 58
1.5638487 9.6189919 6.5484505 46.25
1.9739821 9.5024271 6.5016317 56.666668
2.2035961 9.420804 6.4696031 47
-12.871427 9.9850388 6.9576311 61.666668
-3.8960962 10.153865 6.7143507 51.5
-12.62362 10.307468 6.9638085 66
-12.524641 10.489776 6.9823952 83
-3.587621 10.30607 6.7303395 65.666664
-3.2132566 10.486603 6.7551317 45
-2.2443018 10.552434 6.6208124 92
-2.0031867 10.371232 6.4775171 85
1.3576628 10.550712 6.4029098 129
1.5399492 10.426001 6.3356066 104
-12.324635 10.720995 6.983809 74.5
-12.122929 10.950766 6.9861822 77
-2.9674864 10.629089 6.789793 73
-2.4906516 10.714654 6.756052 93.5
0.9191826 10.876938 6.5892982 107.5
1.1727841 10.691883 6.4823294 121
-11.940969 11.199437 7.0026026 64
-11.63279 11.613327 7.0331178 67
-11.203193 11.904246 6.9955864 54
-6.5199976 12.712325 6.9599719 84
-5.823288 12.904381 6.8875961 50
-6.0635509 13.000938 6.981277 39
-5.5536237 13.175583 6.9503126 86
-8.5254803 13.931725 6.9786377 28
10.249118 -11.051798 5.8550296 10
10.394464 -10.940871 5.8623996 34
2.3045101 -10.236641 6.1173859 8
0.097159833 -8.4733267 6.2579932 8
0.1974714 -8.4229069 6.2178359 15
0.7615875 -7.716188 6.3431368 17
-0.11908905 -7.1177888 6.5138597 31
4.7637482 -7.1177835 6.1913934 92
11.651302 -7.1849198 6.1542444 56
-0.03319329 -6.9051065 6.3147464 20
4.9564466 -6.9495702 6.1679049 86
5.1043458 -6.7253795 6.099978 103
11.52611 -6.82265 6.0258207 66
5.2640996 -6.5231566 6.0545187 100
11.451612 -6.593667 5.9477301 60
-3.5211883 -5.807251 6.4544091 10
-3.6235795 -5.7381425 6.4594131 11.5
-5.4703846 -4.0311661 6.67063 112
-5.3751893 -4.1161537 6.6360755 85.5
13.317635 -3.590893 6.2854195 67.5
-7.4460831 -3.0611703 6.5349197 195
7.1506243 -3.2137308 6.3523626 116.5
13.152831 -3.2082403 6.1789823 67
7.0717301 -2.8305202 6.1820092 117
12.917238 -2.7403748 6.0388713 84
12.998643 -2.9220135 6.0879655 83
12.823549 -2.5591519 5.9852114 79
-8.773798 -2.1191938 6.6622739 137
-6.6626687 -1.3550048 6.9045787 59
-6.4822145 -1.1926066 6.7030182 59.5
9.2450638 -1.2461239 6.1635427 80.5
9.3829355 -1.0933436 6.2477007 95
-10.343097 -0.86708593 6.9455185 50
9.5438271 -0.82147068 6.3475752 92.5
9.7009392 -0.36835584 6.4520073 116.5
9.5144377 -0.018728852 6.3396449 117.25
-6.4818106 0.49481446 6.7213035 76.333336
9.3080931 0.37804601 6.2351522 128
-9.3004169 0.93566072 7.0577064 21
9.2160435 0.65472311 6.2021637 117
-9.8693094 1.2147248 6.7452402 59
-8.9815044 1.017464 6.8305645 41
7.7535696 1.2788947 6.5928278 139.5
-14.450175 1.5975058 6.9111032 55
-9.8321095 1.7138027 6.7892814 68
-9.798131 1.5187205 6.7378798 44
-8.7277651 1.6617315 6.7423062 48
-8.2039061 1.7511536 7.0847683 41
-8.1366825 1.629831 7.0042872 47
7.573956 1.5791 6.5124307 145.8
-14.329594 2.0367973 6.8953824 58
